ncols 100
nrows 100
xllcorner 0.0
yllcorner 0.0
cellsize 1.0
nodata_value -9999
0.000067 0.000091 0.000124 0.000167 0.000223 0.000294 0.000385 0.000499 0.000640 0.000813 0.001021 0.001270 0.001561 0.001896 0.002275 0.002693 0.003144 0.003614 0.004085 0.004528 0.004910 0.005183 0.005293 0.005171 0.004738 0.003905 0.002573 0.000633 -0.002025 -0.005517 -0.009953 -0.015434 -0.022051 -0.029871 -0.038938 -0.049264 -0.060824 -0.073551 -0.087338 -0.102032 -0.117435 -0.133312 -0.149390 -0.165370 -0.180932 -0.195750 -0.209497 -0.221862 -0.232561 -0.241345 -0.248012 -0.252415 -0.254463 -0.254132 -0.251457 -0.246537 -0.239522 -0.230613 -0.220053 -0.208110 -0.195074 -0.181244 -0.166915 -0.152372 -0.137878 -0.123672 -0.109959 -0.096912 -0.084664 -0.073315 -0.062928 -0.053536 -0.045141 -0.037723 -0.031241 -0.025638 -0.020849 -0.016798 -0.013408 -0.010601 -0.008302 -0.006438 -0.004943 -0.003756 -0.002825 -0.002102 -0.001547 -0.001125 -0.000808 -0.000573 -0.000401 -0.000277 -0.000188 -0.000125 -0.000082 -0.000052 -0.000032 -0.000019 -0.000011 -0.000006 
0.000083 0.000114 0.000154 0.000208 0.000277 0.000365 0.000478 0.000619 0.000793 0.001006 0.001263 0.001569 0.001925 0.002335 0.002796 0.003302 0.003844 0.004404 0.004956 0.005465 0.005884 0.006155 0.006203 0.005943 0.005272 0.004074 0.002223 -0.000421 -0.003999 -0.008657 -0.014537 -0.021767 -0.030460 -0.040703 -0.052547 -0.066006 -0.081044 -0.097575 -0.115455 -0.134484 -0.154409 -0.174923 -0.195674 -0.216275 -0.236316 -0.255374 -0.273032 -0.288889 -0.302582 -0.313790 -0.322257 -0.327795 -0.330291 -0.329714 -0.326114 -0.319618 -0.310425 -0.298795 -0.285039 -0.269508 -0.252576 -0.234628 -0.216045 -0.197194 -0.178416 -0.160017 -0.142263 -0.125374 -0.109523 -0.094838 -0.081399 -0.069249 -0.058390 -0.048795 -0.040411 -0.033166 -0.026971 -0.021732 -0.017347 -0.013717 -0.010743 -0.008332 -0.006397 -0.004863 -0.003658 -0.002722 -0.002003 -0.001457 -0.001047 -0.000743 -0.000520 -0.000359 -0.000244 -0.000163 -0.000106 -0.000068 -0.000042 -0.000025 -0.000014 -0.000008 
0.000102 0.000140 0.000190 0.000256 0.000341 0.000450 0.000589 0.000762 0.000976 0.001237 0.001551 0.001924 0.002358 0.002855 0.003412 0.004022 0.004669 0.005330 0.005973 0.006551 0.007004 0.007256 0.007213 0.006763 0.005776 0.004106 0.001589 -0.001949 -0.006691 -0.012819 -0.020512 -0.029933 -0.041222 -0.054488 -0.069794 -0.087152 -0.106516 -0.127771 -0.150732 -0.175141 -0.200672 -0.226930 -0.253467 -0.279788 -0.305367 -0.329667 -0.352155 -0.372322 -0.389702 -0.403894 -0.414569 -0.421489 -0.424515 -0.423611 -0.418841 -0.410370 -0.398455 -0.383431 -0.365696 -0.345701 -0.323923 -0.300856 -0.276987 -0.252786 -0.228688 -0.205083 -0.182312 -0.160656 -0.140335 -0.121510 -0.104287 -0.088716 -0.074801 -0.062507 -0.051766 -0.042483 -0.034548 -0.027836 -0.022220 -0.017569 -0.013760 -0.010671 -0.008194 -0.006228 -0.004685 -0.003486 -0.002565 -0.001866 -0.001341 -0.000952 -0.000666 -0.000460 -0.000312 -0.000208 -0.000136 -0.000087 -0.000054 -0.000032 -0.000018 -0.000010 
0.000125 0.000172 0.000233 0.000314 0.000418 0.000551 0.000720 0.000931 0.001192 0.001510 0.001891 0.002343 0.002868 0.003468 0.004137 0.004865 0.005633 0.006411 0.007155 0.007806 0.008287 0.008501 0.008329 0.007630 0.006238 0.003968 0.000615 -0.004042 -0.010231 -0.018182 -0.028119 -0.040245 -0.054737 -0.071726 -0.091290 -0.113443 -0.138121 -0.165176 -0.194370 -0.225376 -0.257777 -0.291075 -0.324698 -0.358020 -0.390377 -0.421088 -0.449480 -0.474911 -0.496795 -0.514622 -0.527982 -0.536577 -0.540232 -0.538903 -0.532677 -0.521766 -0.506495 -0.487290 -0.464661 -0.439176 -0.411442 -0.382086 -0.351725 -0.320953 -0.290323 -0.260329 -0.231401 -0.203893 -0.178087 -0.154186 -0.132320 -0.112554 -0.094892 -0.079290 -0.065659 -0.053880 -0.043812 -0.035297 -0.028172 -0.022273 -0.017441 -0.013524 -0.010383 -0.007890 -0.005934 -0.004415 -0.003248 -0.002362 -0.001697 -0.001204 -0.000842 -0.000581 -0.000394 -0.000263 -0.000171 -0.000109 -0.000068 -0.000040 -0.000023 -0.000012 
0.000152 0.000209 0.000283 0.000381 0.000507 0.000669 0.000873 0.001129 0.001445 0.001829 0.002290 0.002834 0.003466 0.004184 0.004984 0.005850 0.006756 0.007665 0.008522 0.009250 0.009753 0.009908 0.009566 0.008549 0.006650 0.003637 -0.000747 -0.006776 -0.014736 -0.024913 -0.037585 -0.053005 -0.071390 -0.092903 -0.117639 -0.145610 -0.176734 -0.210820 -0.247571 -0.286571 -0.327296 -0.369118 -0.411322 -0.453121 -0.493682 -0.532151 -0.567687 -0.599484 -0.626810 -0.649029 -0.665628 -0.676236 -0.680637 -0.678779 -0.670773 -0.656886 -0.637532 -0.613245 -0.584668 -0.552514 -0.517548 -0.480556 -0.442314 -0.403568 -0.365010 -0.327263 -0.290864 -0.256260 -0.223801 -0.193742 -0.166247 -0.141396 -0.119194 -0.099582 -0.082451 -0.067649 -0.054998 -0.044301 -0.035351 -0.027943 -0.021875 -0.016958 -0.013015 -0.009887 -0.007432 -0.005526 -0.004064 -0.002953 -0.002120 -0.001502 -0.001050 -0.000723 -0.000490 -0.000326 -0.000212 -0.000135 -0.000083 -0.000049 -0.000028 -0.000014 
0.000184 0.000252 0.000341 0.000459 0.000611 0.000806 0.001052 0.001360 0.001739 0.002200 0.002753 0.003405 0.004160 0.005017 0.005967 0.006991 0.008057 0.009117 0.010099 0.010911 0.011430 0.011505 0.010948 0.009538 0.007021 0.003107 -0.002522 -0.010205 -0.020295 -0.033146 -0.049100 -0.068471 -0.091523 -0.118457 -0.149387 -0.184325 -0.223166 -0.265671 -0.311467 -0.360035 -0.410723 -0.462750 -0.515225 -0.567170 -0.617550 -0.665307 -0.709393 -0.748810 -0.782650 -0.810124 -0.830597 -0.843611 -0.848899 -0.846399 -0.836253 -0.818795 -0.794539 -0.764155 -0.728441 -0.688288 -0.644648 -0.598496 -0.550802 -0.502492 -0.454429 -0.407385 -0.362030 -0.318919 -0.278485 -0.241047 -0.206807 -0.175864 -0.148223 -0.123811 -0.102489 -0.084071 -0.068331 -0.055025 -0.043895 -0.034684 -0.027141 -0.021031 -0.016132 -0.012248 -0.009201 -0.006837 -0.005023 -0.003647 -0.002615 -0.001851 -0.001291 -0.000888 -0.000600 -0.000398 -0.000258 -0.000163 -0.000100 -0.000059 -0.000033 -0.000016 
0.000219 0.000301 0.000408 0.000549 0.000730 0.000963 0.001258 0.001625 0.002078 0.002629 0.003288 0.004064 0.004961 0.005977 0.007101 0.008308 0.009558 0.010789 0.011915 0.012820 0.013353 0.013327 0.012511 0.010634 0.007381 0.002399 -0.004702 -0.014340 -0.026947 -0.042957 -0.062788 -0.086823 -0.115386 -0.148721 -0.186966 -0.230133 -0.278089 -0.330542 -0.387026 -0.446904 -0.509371 -0.573464 -0.638086 -0.702034 -0.764034 -0.822783 -0.876991 -0.925433 -0.966990 -1.000693 -1.025761 -1.041631 -1.047978 -1.044727 -1.032054 -1.010372 -0.980317 -0.942717 -0.898554 -0.848928 -0.795014 -0.738014 -0.679124 -0.619486 -0.560163 -0.502107 -0.446144 -0.392956 -0.343081 -0.296906 -0.254682 -0.216529 -0.182454 -0.152365 -0.126090 -0.103397 -0.084009 -0.067623 -0.053921 -0.042585 -0.033306 -0.025791 -0.019770 -0.014998 -0.011257 -0.008355 -0.006131 -0.004445 -0.003182 -0.002248 -0.001565 -0.001073 -0.000722 -0.000477 -0.000308 -0.000193 -0.000117 -0.000068 -0.000037 -0.000018 
0.000260 0.000356 0.000484 0.000650 0.000866 0.001142 0.001492 0.001928 0.002465 0.003118 0.003899 0.004817 0.005879 0.007079 0.008403 0.009821 0.011283 0.012713 0.014005 0.015018 0.015568 0.015425 0.014311 0.011894 0.007793 0.001575 -0.007232 -0.019136 -0.034661 -0.054336 -0.078668 -0.108121 -0.143090 -0.183869 -0.230626 -0.283373 -0.341949 -0.405993 -0.474939 -0.548010 -0.624223 -0.702405 -0.781218 -0.859195 -0.934783 -1.006392 -1.072451 -1.131465 -1.182070 -1.223084 -1.253556 -1.272798 -1.280415 -1.276316 -1.260714 -1.234118 -1.197304 -1.151280 -1.097250 -1.036556 -0.970632 -0.900950 -0.828966 -0.756080 -0.683586 -0.612651 -0.544281 -0.479310 -0.418392 -0.362003 -0.310447 -0.263870 -0.222278 -0.185560 -0.153504 -0.125825 -0.102185 -0.082211 -0.065515 -0.051708 -0.040412 -0.031268 -0.023946 -0.018147 -0.013603 -0.010083 -0.007387 -0.005346 -0.003819 -0.002690 -0.001867 -0.001275 -0.000855 -0.000561 -0.000359 -0.000223 -0.000133 -0.000075 -0.000039 -0.000017 
0.000305 0.000418 0.000568 0.000765 0.001019 0.001344 0.001756 0.002270 0.002903 0.003672 0.004592 0.005674 0.006922 0.008333 0.009888 0.011550 0.013257 0.014919 0.016408 0.017553 0.018132 0.017870 0.016429 0.013412 0.008357 0.000747 -0.009990 -0.024462 -0.043305 -0.067152 -0.096616 -0.132257 -0.174550 -0.223848 -0.280356 -0.344090 -0.414854 -0.492214 -0.575489 -0.663740 -0.755783 -0.850201 -0.945381 -1.039550 -1.130834 -1.217312 -1.297086 -1.368348 -1.429449 -1.478962 -1.515733 -1.538931 -1.548076 -1.543058 -1.524134 -1.491916 -1.447341 -1.391632 -1.326240 -1.252792 -1.173022 -1.088709 -1.001617 -0.913438 -0.825742 -0.739938 -0.657244 -0.578670 -0.505007 -0.436830 -0.374507 -0.318214 -0.267958 -0.223601 -0.184887 -0.151471 -0.122940 -0.098844 -0.078713 -0.062073 -0.048466 -0.037460 -0.028654 -0.021684 -0.016230 -0.012008 -0.008779 -0.006338 -0.004514 -0.003169 -0.002191 -0.001488 -0.000991 -0.000645 -0.000409 -0.000250 -0.000146 -0.000080 -0.000039 -0.000015 
0.000355 0.000487 0.000662 0.000891 0.001188 0.001569 0.002050 0.002652 0.003393 0.004293 0.005371 0.006638 0.008101 0.009753 0.011572 0.013515 0.015509 0.017445 0.019171 0.020484 0.021119 0.020749 0.018972 0.015315 0.009228 0.000093 -0.012771 -0.030090 -0.052621 -0.081122 -0.116326 -0.158902 -0.209419 -0.268304 -0.335801 -0.411933 -0.496470 -0.588899 -0.688407 -0.793876 -0.903894 -1.016769 -1.130574 -1.243192 -1.352378 -1.455836 -1.551292 -1.636583 -1.709730 -1.769021 -1.813072 -1.840884 -1.851877 -1.845915 -1.823301 -1.784766 -1.731430 -1.664754 -1.586475 -1.498542 -1.403031 -1.302076 -1.197791 -1.092202 -0.987194 -0.884456 -0.785448 -0.691381 -0.603206 -0.521609 -0.447032 -0.379685 -0.319576 -0.266538 -0.220263 -0.180336 -0.146262 -0.117499 -0.093481 -0.073643 -0.057432 -0.044331 -0.033858 -0.025578 -0.019106 -0.014104 -0.010283 -0.007400 -0.005251 -0.003671 -0.002523 -0.001703 -0.001124 -0.000724 -0.000452 -0.000271 -0.000153 -0.000079 -0.000034 -0.000009 
0.000408 0.000561 0.000764 0.001029 0.001374 0.001815 0.002374 0.003073 0.003935 0.004983 0.006238 0.007714 0.009419 0.011347 0.013470 0.015739 0.018068 0.020330 0.022347 0.023879 0.024617 0.024175 0.022081 0.017777 0.010615 -0.000134 -0.015273 -0.035663 -0.062197 -0.095774 -0.137262 -0.187457 -0.247035 -0.316507 -0.396170 -0.486057 -0.585905 -0.695112 -0.812726 -0.937431 -1.067561 -1.201119 -1.335826 -1.469177 -1.598515 -1.721116 -1.834287 -1.935455 -2.022273 -2.092701 -2.145092 -2.178252 -2.191485 -2.184620 -2.158011 -2.112517 -2.049459 -1.970567 -1.877900 -1.773765 -1.660627 -1.541017 -1.417446 -1.292321 -1.167878 -1.046124 -0.928797 -0.817334 -0.712864 -0.616203 -0.527876 -0.448132 -0.376979 -0.314218 -0.259483 -0.212278 -0.172015 -0.138048 -0.109704 -0.086311 -0.067214 -0.051795 -0.039483 -0.029763 -0.022176 -0.016322 -0.011860 -0.008501 -0.006003 -0.004172 -0.002847 -0.001904 -0.001243 -0.000788 -0.000481 -0.000279 -0.000150 -0.000070 -0.000023 0.000003 
0.000465 0.000640 0.000872 0.001177 0.001573 0.002082 0.002726 0.003532 0.004527 0.005739 0.007191 0.008903 0.010882 0.013122 0.015594 0.018240 0.020962 0.023615 0.025992 0.027817 0.028731 0.028286 0.025933 0.021021 0.012797 0.000408 -0.017084 -0.040686 -0.071445 -0.110418 -0.158624 -0.217003 -0.286355 -0.367288 -0.460162 -0.565030 -0.681594 -0.809166 -0.946641 -1.092493 -1.244776 -1.401161 -1.558982 -1.715305 -1.867014 -2.010915 -2.143838 -2.262760 -2.364914 -2.447895 -2.509754 -2.549076 -2.565029 -2.557398 -2.526584 -2.473584 -2.399943 -2.307681 -2.199214 -2.077249 -1.944680 -1.804482 -1.659606 -1.512884 -1.366948 -1.224160 -1.086564 -0.955854 -0.833358 -0.720039 -0.616513 -0.523073 -0.439728 -0.366244 -0.302188 -0.246975 -0.199912 -0.160237 -0.127160 -0.099885 -0.077643 -0.059708 -0.045408 -0.034135 -0.025353 -0.018592 -0.013451 -0.009591 -0.006731 -0.004642 -0.003138 -0.002073 -0.001331 -0.000826 -0.000488 -0.000269 -0.000131 -0.000048 -0.000002 0.000022 
0.000524 0.000722 0.000986 0.001333 0.001784 0.002364 0.003101 0.004023 0.005165 0.006557 0.008228 0.010201 0.012487 0.015080 0.017950 0.021033 0.024218 0.027341 0.030168 0.032384 0.033579 0.033239 0.030734 0.025316 0.016116 0.002148 -0.017671 -0.044510 -0.079585 -0.124125 -0.179321 -0.246270 -0.325917 -0.418981 -0.525898 -0.646751 -0.781215 -0.928514 -1.087389 -1.256086 -1.432366 -1.613541 -1.796526 -1.977920 -2.154108 -2.321375 -2.476032 -2.614556 -2.733713 -2.830691 -2.903204 -2.949582 -2.968837 -2.960696 -2.925605 -2.864705 -2.779777 -2.673160 -2.547655 -2.406404 -2.252773 -2.090222 -1.922189 -1.751973 -1.582640 -1.416945 -1.257273 -1.105600 -0.963475 -0.832022 -0.711960 -0.603630 -0.507044 -0.421925 -0.347770 -0.283894 -0.229489 -0.183667 -0.145502 -0.114069 -0.088471 -0.067860 -0.051455 -0.038549 -0.028517 -0.020814 -0.014974 -0.010605 -0.007382 -0.005039 -0.003362 -0.002183 -0.001370 -0.000821 -0.000460 -0.000231 -0.000090 -0.000009 0.000033 0.000052 
0.000583 0.000806 0.001102 0.001493 0.002002 0.002658 0.003492 0.004540 0.005839 0.007427 0.009337 0.011599 0.014226 0.017217 0.020540 0.024125 0.027854 0.031543 0.034931 0.037666 0.039287 0.039210 0.036724 0.030977 0.020979 0.005606 -0.016386 -0.046335 -0.085641 -0.135721 -0.197955 -0.273617 -0.363811 -0.469390 -0.590879 -0.728403 -0.881624 -1.049682 -1.231161 -1.424077 -1.625885 -1.833517 -2.043442 -2.251763 -2.454325 -2.646852 -2.825092 -2.984973 -3.122754 -3.235169 -3.319557 -3.373965 -3.397221 -3.388977 -3.349719 -3.280733 -3.184046 -3.062335 -2.918811 -2.757086 -2.581034 -2.394642 -2.201870 -2.006527 -1.812152 -1.621929 -1.438612 -1.264485 -1.101340 -0.950477 -0.812726 -0.688484 -0.577763 -0.480243 -0.395342 -0.322268 -0.260086 -0.207769 -0.164249 -0.128455 -0.099353 -0.075964 -0.057386 -0.042807 -0.031506 -0.022857 -0.016325 -0.011459 -0.007889 -0.005309 -0.003478 -0.002202 -0.001333 -0.000755 -0.000383 -0.000153 -0.000019 0.000053 0.000086 0.000095 
0.000640 0.000886 0.001216 0.001651 0.002220 0.002955 0.003892 0.005071 0.006538 0.008335 0.010504 0.013080 0.016084 0.019518 0.023352 0.027514 0.031878 0.036246 0.040332 0.043748 0.045981 0.046383 0.044159 0.038351 0.027846 0.011374 -0.012473 -0.045215 -0.088448 -0.143792 -0.212830 -0.297034 -0.397686 -0.515788 -0.651978 -0.806441 -0.978837 -1.168235 -1.373072 -1.591133 -1.819560 -2.054895 -2.293145 -2.529890 -2.760405 -2.979818 -3.183272 -3.366106 -3.524027 -3.653277 -3.750780 -3.814265 -3.842349 -3.834592 -3.791503 -3.714511 -3.605895 -3.468682 -3.306513 -3.123497 -2.924044 -2.712701 -2.493992 -2.272267 -2.051574 -1.835554 -1.627363 -1.429615 -1.244363 -1.073098 -0.916772 -0.775839 -0.650312 -0.539827 -0.443716 -0.361073 -0.290825 -0.231798 -0.182768 -0.142512 -0.109845 -0.083649 -0.062897 -0.046659 -0.034116 -0.024556 -0.017369 -0.012047 -0.008167 -0.005388 -0.003434 -0.002090 -0.001190 -0.000604 -0.000239 -0.000023 0.000093 0.000147 0.000162 0.000156 
0.000691 0.000960 0.001322 0.001802 0.002430 0.003244 0.004285 0.005601 0.007241 0.009259 0.011703 0.014618 0.018032 0.021955 0.026361 0.031181 0.036283 0.041459 0.046403 0.050694 0.053776 0.054936 0.053297 0.047801 0.037207 0.020100 -0.005097 -0.040093 -0.086689 -0.146720 -0.221989 -0.314182 -0.424779 -0.554955 -0.705481 -0.876626 -1.068067 -1.278822 -1.507194 -1.750748 -2.006321 -2.270062 -2.537507 -2.803696 -3.063317 -3.310870 -3.540864 -3.748011 -3.927428 -4.074825 -4.186674 -4.260351 -4.294232 -4.287757 -4.241443 -4.156852 -4.036510 -3.883799 -3.702804 -3.498147 -3.274799 -3.037892 -2.792541 -2.543668 -2.295858 -2.053239 -1.819389 -1.597275 -1.389228 -1.196940 -1.021495 -0.863408 -0.722695 -0.598944 -0.491396 -0.399024 -0.320610 -0.254823 -0.200275 -0.155580 -0.119397 -0.090463 -0.067613 -0.049800 -0.036100 -0.025711 -0.017948 -0.012241 -0.008117 -0.005195 -0.003168 -0.001800 -0.000904 -0.000341 -0.000007 0.000175 0.000258 0.000281 0.000269 0.000239 
0.000732 0.001023 0.001414 0.001935 0.002620 0.003511 0.004655 0.006107 0.007925 0.010169 0.012901 0.016174 0.020028 0.024483 0.029522 0.035082 0.041033 0.047161 0.053147 0.058545 0.062758 0.065021 0.064378 0.059676 0.049553 0.032450 0.006619 -0.029840 -0.078939 -0.142738 -0.223272 -0.322460 -0.441999 -0.583262 -0.747177 -0.934124 -1.143827 -1.375278 -1.626670 -1.895373 -2.177930 -2.470110 -2.766982 -3.063047 -3.352390 -3.628870 -3.886336 -4.118845 -4.320892 -4.487618 -4.615008 -4.700046 -4.740835 -4.736667 -4.688042 -4.596634 -4.465209 -4.297496 -4.098026 -3.871941 -3.624787 -3.362299 -3.090201 -2.814010 -2.538869 -2.269414 -2.009663 -1.762954 -1.531909 -1.318434 -1.123747 -0.948431 -0.792505 -0.655507 -0.536583 -0.434579 -0.348127 -0.275731 -0.215833 -0.166877 -0.127360 -0.095865 -0.071092 -0.051869 -0.037165 -0.026086 -0.017873 -0.011891 -0.007620 -0.004637 -0.002609 -0.001274 -0.000432 0.000068 0.000339 0.000460 0.000489 0.000464 0.000413 0.000350 
0.000758 0.001066 0.001482 0.002039 0.002776 0.003738 0.004980 0.006563 0.008554 0.011026 0.014050 0.017693 0.022010 0.027035 0.032764 0.039147 0.046060 0.053295 0.060526 0.067291 0.072966 0.076740 0.077592 0.074281 0.065335 0.049056 0.023533 -0.013326 -0.063745 -0.130017 -0.214418 -0.319115 -0.446046 -0.596804 -0.772505 -0.973671 -1.200110 -1.450821 -1.723926 -2.016628 -2.325211 -2.645085 -2.970875 -3.296548 -3.615594 -3.921226 -4.206620 -4.465159 -4.690688 -4.877749 -5.021804 -5.119411 -5.168363 -5.167769 -5.118080 -5.021056 -4.879679 -4.698012 -4.481021 -4.234365 -3.964164 -3.676764 -3.378506 -3.075514 -2.773503 -2.477629 -2.192366 -1.921432 -1.667752 -1.433451 -1.219889 -1.027719 -0.856963 -0.707108 -0.577203 -0.465963 -0.371865 -0.293244 -0.228366 -0.175504 -0.132986 -0.099241 -0.072829 -0.052454 -0.036976 -0.025413 -0.016928 -0.010827 -0.006540 -0.003610 -0.001674 -0.000451 0.000274 0.000660 0.000825 0.000853 0.000802 0.000710 0.000603 0.000496 
0.000764 0.001082 0.001517 0.002101 0.002879 0.003902 0.005230 0.006932 0.009086 0.011776 0.015087 0.019103 0.023895 0.029517 0.035985 0.043265 0.051253 0.059751 0.068441 0.076859 0.084364 0.090114 0.093041 0.091830 0.084912 0.070462 0.046416 0.010499 -0.039724 -0.106778 -0.193192 -0.301393 -0.433580 -0.591592 -0.776767 -0.989806 -1.230643 -1.498332 -1.790967 -2.105633 -2.438399 -2.784357 -3.137719 -3.491950 -3.839961 -4.174330 -4.487558 -4.772348 -5.021874 -5.230055 -5.391799 -5.503201 -5.561704 -5.566194 -5.517035 -5.416038 -5.266365 -5.072388 -4.839484 -4.573811 -4.282053 -3.971159 -3.648087 -3.319567 -2.991890 -2.670738 -2.361047 -2.066922 -1.791594 -1.537414 -1.305886 -1.097735 -0.912988 -0.751078 -0.610957 -0.491208 -0.390149 -0.305945 -0.236684 -0.180464 -0.135447 -0.099907 -0.072263 -0.051098 -0.035165 -0.023394 -0.014876 -0.008860 -0.004731 -0.001998 -0.000273 0.000740 0.001267 0.001475 0.001484 0.001377 0.001214 0.001030 0.000848 0.000682 
0.000740 0.001062 0.001504 0.002104 0.002909 0.003976 0.005371 0.007172 0.009467 0.012354 0.015935 0.020310 0.025574 0.031804 0.039041 0.047280 0.056442 0.066355 0.076720 0.087087 0.096816 0.105055 0.110704 0.112397 0.108488 0.097044 0.075863 0.042501 -0.005679 -0.071434 -0.157549 -0.266721 -0.401429 -0.563788 -0.755392 -0.977166 -1.229218 -1.510712 -1.819776 -2.153434 -2.507599 -2.877105 -3.255801 -3.636694 -4.012153 -4.374143 -4.714508 -5.025268 -5.298924 -5.528750 -5.709069 -5.835480 -5.905036 -5.916353 -5.869662 -5.766777 -5.611000 -5.406966 -5.160431 -4.878021 -4.566957 -4.234772 -3.889024 -3.537042 -3.185686 -2.841158 -2.508856 -2.193272 -1.897944 -1.625449 -1.377439 -1.154708 -0.957290 -0.784566 -0.635389 -0.508208 -0.401187 -0.312316 -0.239509 -0.180690 -0.133857 -0.097130 -0.068793 -0.047310 -0.031334 -0.019709 -0.011462 -0.005787 -0.002031 0.000326 0.001691 0.002374 0.002606 0.002557 0.002347 0.002058 0.001744 0.001438 0.001159 0.000916 
0.000680 0.000993 0.001429 0.002028 0.002840 0.003926 0.005360 0.007229 0.009632 0.012681 0.016495 0.021198 0.026909 0.033733 0.041747 0.050982 0.061396 0.072855 0.085097 0.097704 0.110060 0.121322 0.130388 0.135864 0.136051 0.128936 0.112202 0.083252 0.039263 -0.022746 -0.105814 -0.212919 -0.346837 -0.509986 -0.704254 -0.930840 -1.190081 -1.481318 -1.802781 -2.151511 -2.523339 -2.912912 -3.313786 -3.718574 -4.119151 -4.506916 -4.873081 -5.209000 -5.506498 -5.758195 -5.957808 -6.100402 -6.182593 -6.202684 -6.160716 -6.058450 -5.899273 -5.688031 -5.430806 -5.134650 -4.807282 -4.456784 -4.091290 -3.718701 -3.346430 -2.981190 -2.628829 -2.294221 -1.981205 -1.692584 -1.430154 -1.194781 -0.986502 -0.804648 -0.647975 -0.514800 -0.403131 -0.310791 -0.235522 -0.175078 -0.127295 -0.090149 -0.061794 -0.040580 -0.025068 -0.014025 -0.006418 -0.001396 0.001728 0.003494 0.004322 0.004530 0.004351 0.003953 0.003451 0.002921 0.002411 0.001949 0.001546 0.001207 
0.000572 0.000862 0.001274 0.001850 0.002641 0.003715 0.005150 0.007043 0.009504 0.012660 0.016650 0.021623 0.027727 0.035103 0.043868 0.054099 0.065805 0.078907 0.093197 0.108309 0.123676 0.138495 0.151687 0.161863 0.167304 0.165947 0.155387 0.132904 0.095507 0.040006 -0.036887 -0.138434 -0.267727 -0.427511 -0.620013 -0.846753 -1.108366 -1.404440 -1.733389 -2.092359 -2.477188 -2.882428 -3.301428 -3.726483 -4.149048 -4.560008 -4.949989 -5.309707 -5.630322 -5.903796 -6.123217 -6.283086 -6.379540 -6.410509 -6.375785 -6.277014 -6.117601 -5.902537 -5.638169 -5.331915 -4.991942 -4.626833 -4.245258 -3.855659 -3.465975 -3.083406 -2.714235 -2.363702 -2.035945 -1.733982 -1.459749 -1.214182 -0.997324 -0.808453 -0.646231 -0.508846 -0.394156 -0.299820 -0.223412 -0.162525 -0.114843 -0.078204 -0.050638 -0.030395 -0.015950 -0.006004 0.000527 0.004530 0.006715 0.007638 0.007725 0.007291 0.006566 0.005710 0.004831 0.003993 0.003236 0.002578 0.002021 0.001561 
0.000406 0.000655 0.001020 0.001543 0.002279 0.003298 0.004684 0.006541 0.008992 0.012179 0.016262 0.021417 0.027825 0.035669 0.045114 0.056293 0.069280 0.084066 0.100520 0.118350 0.137068 0.155939 0.173942 0.189730 0.201601 0.207479 0.204909 0.191078 0.162854 0.116860 0.049569 -0.042569 -0.162968 -0.314735 -0.500470 -0.722072 -0.980542 -1.275799 -1.606531 -1.970086 -2.362415 -2.778079 -3.210320 -3.651213 -4.091878 -4.522757 -4.933947 -5.315566 -5.658131 -5.952947 -6.192461 -6.370576 -6.482905 -6.526950 -6.502188 -6.410076 -6.253960 -6.038904 -5.771446 -5.459300 -5.111014 -4.735618 -4.342266 -3.939900 -3.536944 -3.141059 -2.758938 -2.396174 -2.057182 -1.745189 -1.462268 -1.209418 -0.986686 -0.793301 -0.627830 -0.488339 -0.372538 -0.277931 -0.201933 -0.141983 -0.095623 -0.060562 -0.034722 -0.016259 -0.003576 0.004681 0.009636 0.012201 0.013100 0.012892 0.012001 0.010735 0.009311 0.007877 0.006523 0.005303 0.004240 0.003340 0.002594 0.001988 
0.000170 0.000356 0.000645 0.001080 0.001717 0.002626 0.003898 0.005643 0.007994 0.011110 0.015172 0.020384 0.026965 0.035143 0.045140 0.057157 0.071345 0.087783 0.106436 0.127118 0.149443 0.172783 0.196211 0.218463 0.237898 0.252468 0.259711 0.256758 0.240374 0.207017 0.152936 0.074303 -0.032634 -0.171362 -0.344900 -0.555583 -0.804847 -1.093029 -1.419193 -1.780998 -2.174621 -2.594748 -3.034633 -3.486237 -3.940444 -4.387341 -4.816565 -5.217684 -5.580605 -5.895986 -6.155620 -6.352787 -6.482530 -6.541861 -6.529875 -6.447761 -6.298725 -6.087817 -5.821686 -5.508262 -5.156402 -4.775515 -4.375180 -3.964784 -3.553200 -3.148509 -2.757786 -2.386950 -2.040683 -1.722404 -1.434313 -1.177470 -0.951922 -0.756848 -0.590727 -0.451502 -0.336745 -0.243810 -0.169965 -0.112503 -0.068835 -0.036556 -0.013488 0.002288 0.012431 0.018337 0.021157 0.021815 0.021039 0.019380 0.017250 0.014940 0.012647 0.010497 0.008563 0.006876 0.005442 0.004249 0.003276 0.002496 
-0.000150 -0.000054 0.000126 0.000430 0.000913 0.001648 0.002725 0.004261 0.006399 0.009313 0.013204 0.018305 0.024877 0.033197 0.043551 0.056217 0.071438 0.089399 0.110183 0.133734 0.159805 0.187906 0.217249 0.246697 0.274714 0.299332 0.318126 0.328219 0.326309 0.308721 0.271507 0.210563 0.121799 0.001323 -0.154340 -0.348016 -0.581654 -0.856098 -1.170890 -1.524118 -1.912308 -2.330397 -2.771776 -3.228412 -3.691065 -4.149562 -4.593161 -5.010938 -5.392229 -5.727059 -6.006568 -6.223381 -6.371929 -6.448676 -6.452260 -6.383521 -6.245440 -6.042965 -5.782763 -5.472897 -5.122455 -4.741150 -4.338920 -3.925544 -3.510290 -3.101621 -2.706960 -2.332528 -1.983249 -1.662723 -1.373263 -1.115985 -0.890932 -0.697232 -0.533277 -0.396893 -0.285520 -0.196370 -0.126571 -0.073283 -0.033800 -0.005612 0.013540 0.025643 0.032399 0.035233 0.035309 0.033551 0.030674 0.027216 0.023561 0.019975 0.016627 0.013614 0.010981 0.008736 0.006859 0.005320 0.004078 0.003091 
-0.000566 -0.000592 -0.000563 -0.000440 -0.000175 0.000305 0.001091 0.002301 0.004087 0.006633 0.010164 0.014941 0.021264 0.029467 0.039904 0.052939 0.068921 0.088156 0.110870 0.137163 0.166958 0.199944 0.235513 0.272700 0.310128 0.345956 0.377853 0.402983 0.418018 0.419193 0.402383 0.363230 0.297301 0.200284 0.068211 -0.102290 -0.313754 -0.567622 -0.864022 -1.201587 -1.577322 -1.986547 -2.422920 -2.878545 -3.344172 -3.809476 -4.263417 -4.694652 -5.091987 -5.444839 -5.743687 -5.980486 -6.149009 -6.245114 -6.266909 -6.214807 -6.091470 -5.901657 -5.651962 -5.350494 -5.006486 -4.629883 -4.230914 -3.819687 -3.405817 -2.998105 -2.604288 -2.230858 -1.882959 -1.564356 -1.277463 -1.023441 -0.802325 -0.613192 -0.454345 -0.323498 -0.217962 -0.134816 -0.071056 -0.023721 0.010003 0.032714 0.046743 0.054125 0.056594 0.055590 0.052272 0.047554 0.042126 0.036494 0.031009 0.025900 0.021298 0.017263 0.013807 0.010905 0.008510 0.006565 0.005009 0.003781 
-0.001092 -0.001277 -0.001444 -0.001564 -0.001590 -0.001459 -0.001080 -0.000335 0.000931 0.002912 0.005850 0.010035 0.015809 0.023560 0.033718 0.046739 0.063089 0.083214 0.107499 0.136231 0.169533 0.207310 0.249178 0.294395 0.341791 0.389712 0.435972 0.477828 0.511982 0.534615 0.541463 0.527929 0.489245 0.420664 0.317698 0.176373 -0.006496 -0.233038 -0.504073 -0.818895 -1.175116 -1.568573 -1.993326 -2.441746 -2.904693 -3.371798 -3.831816 -4.273054 -4.683835 -5.052995 -5.370358 -5.627185 -5.816554 -5.933662 -5.976019 -5.943527 -5.838449 -5.665260 -5.430396 -5.141925 -4.809146 -4.442157 -4.051416 -3.647300 -3.239719 -2.837771 -2.449470 -2.081552 -1.739358 -1.426796 -1.146371 -0.899278 -0.685538 -0.504172 -0.353393 -0.230803 -0.133589 -0.058701 -0.003012 0.036551 0.062900 0.078711 0.086370 0.087951 0.085203 0.079563 0.072179 0.063934 0.055483 0.047288 0.039654 0.032762 0.026697 0.021475 0.017063 0.013400 0.010406 0.007993 0.006076 0.004571 
-0.001742 -0.002126 -0.002544 -0.002973 -0.003378 -0.003701 -0.003861 -0.003744 -0.003195 -0.002014 0.000056 0.003329 0.008186 0.015072 0.024492 0.037004 0.053198 0.073671 0.098992 0.129654 0.166014 0.208231 0.256186 0.309407 0.366987 0.427512 0.489000 0.548858 0.603866 0.650203 0.683501 0.698950 0.691456 0.655834 0.587048 0.480483 0.332233 0.139402 -0.099619 -0.384902 -0.714789 -1.085763 -1.492419 -1.927519 -2.382159 -2.846030 -3.307775 -3.755420 -4.176860 -4.560375 -4.895138 -5.171704 -5.382421 -5.521775 -5.586610 -5.576248 -5.492470 -5.339385 -5.123190 -4.851828 -4.534591 -4.181664 -3.803667 -3.411196 -3.014408 -2.622658 -2.244204 -1.885999 -1.553558 -1.250915 -0.980651 -0.743982 -0.540908 -0.370386 -0.230536 -0.118848 -0.032383 0.032032 0.077646 0.107637 0.125005 0.132493 0.132534 0.127224 0.118318 0.107239 0.095104 0.082756 0.070800 0.059643 0.049534 0.040593 0.032850 0.026268 0.020765 0.016234 0.012557 0.009612 0.007284 0.005466 
-0.002527 -0.003156 -0.003883 -0.004698 -0.005577 -0.006476 -0.007325 -0.008020 -0.008412 -0.008300 -0.007419 -0.005434 -0.001928 0.003597 0.011723 0.023111 0.038483 0.058600 0.084228 0.116090 0.154804 0.200817 0.254318 0.315150 0.382722 0.455915 0.533008 0.611615 0.688655 0.760347 0.822263 0.869413 0.896393 0.897578 0.867369 0.800472 0.692209 0.538841 0.337877 0.088367 -0.208877 -0.551108 -0.933577 -1.349563 -1.790507 -2.246266 -2.705458 -3.155899 -3.585104 -3.980828 -4.331603 -4.627263 -4.859400 -5.021740 -5.110411 -5.124085 -5.063992 -4.933804 -4.739402 -4.488540 -4.190433 -3.855297 -3.493861 -3.116891 -2.734755 -2.357029 -1.992187 -1.647372 -1.328256 -1.038982 -0.782188 -0.559104 -0.369692 -0.212841 -0.086571 0.011749 0.085183 0.137032 0.170663 0.189355 0.196193 0.193980 0.185187 0.171922 0.155935 0.138621 0.121058 0.104033 0.088093 0.073576 0.060662 0.049405 0.039768 0.031652 0.024920 0.019413 0.014969 0.011427 0.008638 0.006467 
-0.003458 -0.004383 -0.005484 -0.006766 -0.008225 -0.009832 -0.011537 -0.013248 -0.014832 -0.016092 -0.016762 -0.016492 -0.014838 -0.011249 -0.005070 0.004461 0.018204 0.037091 0.062097 0.094194 0.134287 0.183139 0.241286 0.308932 0.385848 0.471265 0.563781 0.661274 0.760853 0.858836 0.950777 1.031541 1.095436 1.136409 1.148286 1.125069 1.061262 0.952223 0.794505 0.586181 0.327121 0.019191 -0.333630 -0.725244 -1.147547 -1.590652 -2.043233 -2.492964 -2.927027 -3.332678 -3.697820 -4.011559 -4.264707 -4.450197 -4.563391 -4.602260 -4.567424 -4.462058 -4.291669 -4.063767 -3.787441 -3.472887 -3.130904 -2.772397 -2.407908 -2.047212 -1.698976 -1.370516 -1.067641 -0.794585 -0.554034 -0.347213 -0.174039 -0.033317 0.077044 0.159802 0.218155 0.255538 0.275436 0.281236 0.276103 0.262897 0.244120 0.221890 0.197938 0.173627 0.149981 0.127726 0.107333 0.089067 0.073027 0.059191 0.047446 0.037626 0.029528 0.022938 0.017642 0.013437 0.010137 0.007575 
-0.004544 -0.005816 -0.007360 -0.009199 -0.011351 -0.013810 -0.016549 -0.019501 -0.022549 -0.025513 -0.028134 -0.030056 -0.030811 -0.029808 -0.026323 -0.019491 -0.008321 0.008297 0.031557 0.062692 0.102914 0.153331 0.214856 0.288094 0.373223 0.469878 0.577024 0.692864 0.814753 0.939158 1.061663 1.177026 1.279300 1.362015 1.418426 1.441816 1.425842 1.364908 1.254548 1.091788 0.875465 0.606475 0.287931 -0.074790 -0.474123 -0.900526 -1.342801 -1.788532 -2.224613 -2.637830 -3.015467 -3.345901 -3.619145 -3.827315 -3.964972 -4.029346 -4.020405 -3.940784 -3.795577 -3.592007 -3.339003 -3.046713 -2.725981 -2.387824 -2.042946 -1.701300 -1.371735 -1.061724 -0.777200 -0.522478 -0.300275 -0.111797 0.043099 0.165705 0.258238 0.323595 0.365124 0.386399 0.391037 0.382533 0.364138 0.338771 0.308964 0.276839 0.244106 0.212087 0.181745 0.153735 0.128448 0.106062 0.086590 0.069922 0.055865 0.044174 0.034578 0.026800 0.020571 0.015639 0.011779 0.008790 
-0.005790 -0.007465 -0.009523 -0.012012 -0.014975 -0.018437 -0.022400 -0.026828 -0.031633 -0.036658 -0.041660 -0.046288 -0.050062 -0.052358 -0.052390 -0.049203 -0.041670 -0.028508 -0.008301 0.020458 0.059299 0.109698 0.172972 0.250160 0.341892 0.448244 0.568607 0.701556 0.844747 0.994850 1.147528 1.297475 1.438521 1.563804 1.666021 1.737732 1.771728 1.761431 1.701312 1.587291 1.417107 1.190613 0.909981 0.579791 0.206990 -0.199287 -0.628028 -1.066781 -1.502188 -1.920587 -2.308655 -2.654042 -2.945957 -3.175680 -3.336953 -3.426239 -3.442828 -3.388792 -3.268788 -3.089734 -2.860384 -2.590823 -2.291931 -1.974832 -1.650383 -1.328714 -1.018846 -0.728406 -0.463442 -0.228338 -0.025828 0.142912 0.278101 0.381150 0.454416 0.500956 0.524279 0.528120 0.516236 0.492243 0.459486 0.420949 0.379196 0.336354 0.294111 0.253742 0.216149 0.181907 0.151320 0.124472 0.101281 0.081546 0.064984 0.051267 0.040049 0.030984 0.023744 0.018025 0.013558 0.010105 
-0.007197 -0.009331 -0.011976 -0.015210 -0.019107 -0.023727 -0.029110 -0.035259 -0.042123 -0.049581 -0.057415 -0.065291 -0.072731 -0.079086 -0.083523 -0.085002 -0.082272 -0.073878 -0.058183 -0.033405 0.002315 0.050836 0.113899 0.193008 0.289272 0.403257 0.534818 0.682954 0.845671 1.019893 1.201413 1.384905 1.564015 1.731524 1.879586 2.000052 2.084844 2.126391 2.118071 2.054665 1.932770 1.751144 1.510964 1.215955 0.872394 0.488956 0.076421 -0.352760 -0.785004 -1.206227 -1.602513 -1.960788 -2.269458 -2.518962 -2.702217 -2.814913 -2.855654 -2.825943 -2.729997 -2.574432 -2.367826 -2.120211 -1.842507 -1.545955 -1.241573 -0.939672 -0.649450 -0.378687 -0.133543 0.081536 0.263808 0.412143 0.526858 0.609496 0.662579 0.689345 0.693486 0.678914 0.649549 0.609141 0.561143 0.508611 0.454152 0.399901 0.347525 0.298255 0.252926 0.212031 0.175783 0.144168 0.117004 0.093989 0.074748 0.058864 0.045909 0.035467 0.027144 0.020583 0.015466 0.011516 
-0.008762 -0.011411 -0.014716 -0.018789 -0.023741 -0.029675 -0.036675 -0.044791 -0.054022 -0.064289 -0.075416 -0.087097 -0.098867 -0.110072 -0.119838 -0.127057 -0.130363 -0.128139 -0.118532 -0.099487 -0.068811 -0.024256 0.036360 0.115023 0.213353 0.332434 0.472628 0.633397 0.813148 1.009105 1.217238 1.432251 1.647650 1.855892 2.048624 2.217007 2.352111 2.445370 2.489069 2.476834 2.404097 2.268494 2.070172 1.811971 1.499459 1.140820 0.746567 0.329127 -0.097719 -0.519481 -0.921663 -1.290482 -1.613546 -1.880464 -2.083332 -2.217075 -2.279627 -2.271932 -2.197786 -2.063520 -1.877561 -1.649909 -1.391548 -1.113857 -0.828035 -0.544593 -0.272917 -0.020946 0.205045 0.400553 0.562838 0.690833 0.784966 0.846938 0.879458 0.885968 0.870371 0.836779 0.789294 0.731824 0.667944 0.600799 0.533047 0.466841 0.403833 0.345210 0.291744 0.243846 0.201633 0.164990 0.133632 0.107155 0.085083 0.066908 0.052117 0.040217 0.030748 0.023294 0.017488 0.013012 
-0.010478 -0.013695 -0.017730 -0.022734 -0.028859 -0.036257 -0.045066 -0.055391 -0.067287 -0.080736 -0.095612 -0.111651 -0.128417 -0.145262 -0.161294 -0.175344 -0.185951 -0.191346 -0.189469 -0.177999 -0.154413 -0.116072 -0.060343 0.015253 0.112867 0.234127 0.379931 0.550246 0.743917 0.958515 1.190234 1.433854 1.682787 1.929211 2.164305 2.378575 2.562266 2.705839 2.800498 2.838722 2.814777 2.725172 2.569015 2.348244 2.067707 1.735074 1.360580 0.956606 0.537117 0.116993 -0.288706 -0.665502 -1.000226 -1.281673 -1.501140 -1.652814 -1.733982 -1.745066 -1.689472 -1.573283 -1.404815 -1.194072 -0.952142 -0.690575 -0.420784 -0.153501 0.101679 0.336642 0.544998 0.722185 0.865475 0.973873 1.047943 1.089563 1.101656 1.087895 1.052418 0.999568 0.933652 0.858758 0.778604 0.696442 0.614996 0.536446 0.462439 0.394126 0.332216 0.277040 0.228622 0.186744 0.151015 0.120926 0.095898 0.075329 0.058618 0.045193 0.034525 0.026137 0.019610 0.014582 
-0.012333 -0.016166 -0.020997 -0.027015 -0.034424 -0.043428 -0.054224 -0.066985 -0.081834 -0.098817 -0.117877 -0.138805 -0.161208 -0.184462 -0.207671 -0.229628 -0.248785 -0.263242 -0.270746 -0.268719 -0.254317 -0.224514 -0.176228 -0.106477 -0.012569 0.107685 0.255747 0.432113 0.636104 0.865679 1.117300 1.385869 1.664752 1.945897 2.220062 2.477142 2.706596 2.897953 3.041364 3.128188 3.151548 3.106841 2.992145 2.808504 2.560046 2.253928 1.900099 1.510889 1.100434 0.683991 0.277164 -0.104894 -0.448259 -0.740946 -0.973486 -1.139367 -1.235272 -1.261145 -1.220054 -1.117887 -0.962896 -0.765144 -0.535867 -0.286832 -0.029702 0.224536 0.466051 0.686545 0.879497 1.040288 1.166207 1.256349 1.311426 1.333520 1.325790 1.292169 1.237062 1.165065 1.080721 0.988322 0.891752 0.794386 0.699034 0.607916 0.522685 0.444463 0.373904 0.311262 0.256469 0.209206 0.168976 0.135162 0.107086 0.084045 0.065351 0.050349 0.038440 0.029084 0.021810 0.016211 
-0.014308 -0.018801 -0.024485 -0.031593 -0.040383 -0.051118 -0.064065 -0.079466 -0.097524 -0.118365 -0.142006 -0.168311 -0.196946 -0.227326 -0.258567 -0.289442 -0.318339 -0.343241 -0.361719 -0.370956 -0.367798 -0.348841 -0.310562 -0.249477 -0.162349 -0.046415 0.100362 0.279034 0.489426 0.729918 0.997280 1.286583 1.591194 1.902884 2.212040 2.508002 2.779496 3.015165 3.204161 3.336763 3.404992 3.403165 3.328362 3.180755 2.963770 2.684062 2.351301 1.977761 1.577746 1.166873 0.761272 0.376744 0.027931 -0.272437 -0.514174 -0.690116 -0.796400 -0.832550 -0.801357 -0.708572 -0.562448 -0.373161 -0.152153 0.088545 0.336977 0.581865 0.813119 1.022231 1.202544 1.349379 1.460047 1.533742 1.571344 1.575159 1.548609 1.495914 1.421771 1.331058 1.228581 1.118859 1.005966 0.893425 0.784143 0.680399 0.583863 0.495638 0.416330 0.346123 0.284860 0.232125 0.187315 0.149709 0.118525 0.092962 0.072242 0.055629 0.042451 0.032105 0.024066 0.017882 
-0.016380 -0.021569 -0.028152 -0.036414 -0.046665 -0.059239 -0.074471 -0.092688 -0.114176 -0.139150 -0.167718 -0.199826 -0.235213 -0.273352 -0.313388 -0.354092 -0.393806 -0.430417 -0.461340 -0.483536 -0.493560 -0.487646 -0.461838 -0.412160 -0.334833 -0.226520 -0.084598 0.092556 0.305291 0.552437 0.831109 1.136587 1.462288 1.799857 2.139371 2.469670 2.778813 3.054619 3.285299 3.460114 3.570035 3.608353 3.571194 3.457893 3.271205 3.017306 2.705598 2.348304 1.959888 1.556313 1.154213 0.769999 0.418995 0.114625 -0.132261 -0.313908 -0.425971 -0.467620 -0.441435 -0.353099 -0.210929 -0.025275 0.192158 0.429025 0.673036 0.912585 1.137296 1.338436 1.509197 1.644840 1.742701 1.802083 1.824050 1.811151 1.767095 1.696410 1.604111 1.495388 1.375329 1.248708 1.119810 0.992321 0.869268 0.753003 0.645224 0.547027 0.458980 0.381203 0.313457 0.255229 0.205816 0.164395 0.130079 0.101975 0.079210 0.060971 0.046511 0.035165 0.026352 0.019576 
-0.018521 -0.024433 -0.031950 -0.041411 -0.053187 -0.067678 -0.085302 -0.106468 -0.131558 -0.160885 -0.194655 -0.232909 -0.275475 -0.321894 -0.371361 -0.422661 -0.474110 -0.523520 -0.568170 -0.604823 -0.629760 -0.638873 -0.627791 -0.592060 -0.527370 -0.429812 -0.296181 -0.124274 0.086796 0.336332 0.621823 0.938795 1.280763 1.639299 2.004227 2.363956 2.705942 3.017254 3.285234 3.498195 3.646127 3.721356 3.719111 3.637940 3.479964 3.250907 2.959922 2.619187 2.243317 1.848606 1.452158 1.070962 0.720970 0.416247 0.168244 -0.014759 -0.128003 -0.170374 -0.144312 -0.055499 0.087622 0.274466 0.493016 0.730565 0.974449 1.212705 1.434646 1.631297 1.795693 1.923029 2.010672 2.058043 2.066401 2.038555 1.978517 1.891148 1.781801 1.655993 1.519124 1.376238 1.231851 1.089830 0.953338 0.824813 0.705994 0.597984 0.501317 0.416060 0.341896 0.278225 0.224245 0.179033 0.141604 0.110969 0.086169 0.066308 0.050569 0.038224 0.028639 0.021270 
-0.020699 -0.027348 -0.035821 -0.046509 -0.059846 -0.076307 -0.096388 -0.120593 -0.149401 -0.183231 -0.222393 -0.267039 -0.317090 -0.372174 -0.431549 -0.494031 -0.557931 -0.621004 -0.680416 -0.732752 -0.774046 -0.799869 -0.805459 -0.785901 -0.736370 -0.652401 -0.530209 -0.367017 -0.161389 0.086463 0.374425 0.698306 1.051759 1.426335 1.811666 2.195797 2.565655 2.907637 3.208295 3.455074 3.637060 3.745687 3.775349 3.723865 3.592766 3.387356 3.116554 2.792500 2.429952 2.045509 1.656713 1.281081 0.935143 0.633541 0.388261 0.208037 0.097973 0.059394 0.089937 0.183858 0.332528 0.525077 0.749131 0.991584 1.239365 1.480134 1.702874 1.898357 2.059454 2.181296 2.261280 2.298953 2.295781 2.254841 2.180464 2.077857 1.952725 1.810933 1.658203 1.499865 1.340680 1.184715 1.035276 0.894902 0.765385 0.647841 0.542785 0.450233 0.369802 0.300806 0.242355 0.193427 0.152944 0.119823 0.093023 0.071567 0.054569 0.041241 0.030895 0.022943 
-0.022878 -0.030267 -0.039700 -0.051623 -0.066533 -0.084980 -0.107545 -0.134824 -0.167401 -0.205803 -0.250455 -0.301621 -0.359330 -0.423306 -0.492881 -0.566921 -0.643746 -0.721076 -0.795986 -0.864905 -0.923647 -0.967486 -0.991293 -0.989720 -0.957449 -0.889477 -0.781454 -0.630036 -0.433243 -0.190791 0.095621 0.422110 0.782508 1.168392 1.569262 1.972868 2.365685 2.733519 3.062218 3.338443 3.550461 3.688891 3.747363 3.723026 3.616865 3.433798 3.182530 2.875158 2.526571 2.153645 1.774317 1.406582 1.067484 0.772177 0.533111 0.359404 0.256434 0.225675 0.264778 0.367883 0.526129 0.728321 0.961694 1.212721 1.467904 1.714510 1.941186 2.138446 2.298997 2.417904 2.492601 2.522764 2.510070 2.457874 2.370831 2.254498 2.114946 1.958392 1.790888 1.618061 1.444927 1.275756 1.114013 0.962342 0.822600 0.695923 0.582815 0.483250 0.396785 0.322658 0.259890 0.207373 0.163936 0.128411 0.099673 0.076672 0.058454 0.044172 0.033087 0.024569 
-0.025020 -0.033138 -0.043518 -0.056661 -0.073128 -0.093542 -0.118570 -0.148903 -0.185229 -0.228188 -0.278322 -0.336012 -0.401403 -0.474321 -0.554187 -0.639924 -0.729881 -0.821759 -0.912565 -0.998597 -1.075471 -1.138194 -1.181300 -1.199036 -1.185618 -1.135531 -1.043884 -0.906781 -0.721703 -0.487874 -0.206565 0.118669 0.481871 0.874694 1.286561 1.704995 2.116097 2.505166 2.857433 3.158867 3.397001 3.561722 3.645967 3.646274 3.563133 3.401103 3.168684 2.877932 2.543843 2.183533 1.815288 1.457517 1.127715 0.841475 0.611642 0.447647 0.355078 0.335497 0.386520 0.502128 0.673196 0.888180 1.133907 1.396415 1.661782 1.916876 2.150013 2.351451 2.513739 2.631880 2.703348 2.727951 2.707579 2.645862 2.547781 2.419245 2.266686 2.096673 1.915590 1.729363 1.543261 1.361764 1.188496 1.026215 0.876847 0.741554 0.620836 0.514635 0.422452 0.343456 0.276591 0.220662 0.174416 0.136602 0.106019 0.081545 0.062164 0.046972 0.035182 0.026123 
-0.027084 -0.035907 -0.047205 -0.061530 -0.079506 -0.101831 -0.129253 -0.162560 -0.202543 -0.249953 -0.305452 -0.369540 -0.442480 -0.524207 -0.614235 -0.711561 -0.814573 -0.920969 -1.027708 -1.130981 -1.226232 -1.308234 -1.371213 -1.409043 -1.415510 -1.384617 -1.310960 -1.190112 -1.019037 -0.796469 -0.523252 -0.202595 0.159785 0.555655 0.974419 1.403439 1.828518 2.234532 2.606188 2.928853 3.189415 3.377110 3.484258 3.506845 3.444907 3.302672 3.088445 2.814227 2.495091 2.148353 1.792586 1.446552 1.128122 0.853256 0.635118 0.483390 0.403807 0.397973 0.463426 0.593964 0.780179 1.010171 1.270361 1.546363 1.823833 2.089265 2.330652 2.538013 2.703746 2.822803 2.892701 2.913379 2.886936 2.817276 2.709694 2.570442 2.406301 2.224187 2.030804 1.832368 1.634397 1.441579 1.257696 1.085618 0.927342 0.784064 0.656283 0.543914 0.446411 0.362882 0.292196 0.233085 0.184217 0.144266 0.111958 0.086108 0.065638 0.049594 0.037145 0.027579 
-0.029032 -0.038522 -0.050689 -0.066134 -0.085544 -0.109683 -0.139385 -0.175526 -0.218998 -0.270664 -0.331300 -0.401526 -0.481723 -0.571938 -0.671785 -0.780338 -0.896036 -1.016591 -1.138931 -1.259163 -1.372590 -1.473776 -1.556675 -1.614829 -1.641626 -1.630629 -1.575951 -1.472670 -1.317252 -1.107958 -0.845206 -0.531853 -0.173355 0.222210 0.644276 1.080108 1.515288 1.934356 2.321582 2.661825 2.941418 3.149030 3.276435 3.319124 3.276722 3.153146 2.956508 2.698733 2.394939 2.062585 1.720470 1.387634 1.082247 0.820559 0.615986 0.478391 0.413608 0.423241 0.504727 0.651665 0.854368 1.100588 1.376363 1.666904 1.957482 2.234238 2.484873 2.699190 2.869454 2.990576 3.060120 3.078157 3.046986 2.970770 2.855103 2.706562 2.532259 2.339434 2.135096 1.925733 1.717103 1.514085 1.320615 1.139673 0.973325 0.822800 0.688602 0.570624 0.468278 0.380618 0.306450 0.244436 0.193176 0.151273 0.117390 0.090282 0.068818 0.051995 0.038942 0.028913 
-0.030824 -0.040930 -0.053899 -0.070381 -0.091119 -0.116942 -0.148761 -0.187537 -0.234261 -0.289898 -0.355336 -0.431311 -0.518320 -0.616521 -0.725627 -0.844798 -0.972531 -1.106566 -1.243815 -1.380324 -1.511282 -1.631078 -1.733432 -1.811588 -1.858586 -1.867585 -1.832262 -1.747232 -1.608496 -1.413864 -1.163341 -0.859426 -0.507296 -0.114846 0.307438 0.746787 1.188635 1.617271 2.016621 2.371126 2.666655 2.891394 3.036641 3.097450 3.073070 2.967126 2.787529 2.546107 2.257974 1.940675 1.613161 1.294671 1.003595 0.756394 0.566661 0.444384 0.395449 0.421431 0.519651 0.683514 0.903070 1.165756 1.457259 1.762437 2.066217 2.354433 2.614534 2.836136 3.011399 3.135206 3.205175 3.221501 3.186674 3.105096 2.982638 2.826171 2.643112 2.440995 2.227107 2.008185 1.790202 1.578217 1.376304 1.187544 1.014068 0.857138 0.717263 0.594319 0.487684 0.396363 0.319108 0.254519 0.201135 0.157500 0.122218 0.093992 0.071645 0.054130 0.040540 0.030099 
-0.032424 -0.043082 -0.056772 -0.074186 -0.096118 -0.123460 -0.157190 -0.198350 -0.248018 -0.307259 -0.377064 -0.458279 -0.551509 -0.657022 -0.774631 -0.903581 -1.042433 -1.188965 -1.340094 -1.491824 -1.639256 -1.776640 -1.897500 -1.994828 -2.061356 -2.089894 -2.073725 -2.007048 -1.885434 -1.706272 -1.469170 -1.176275 -0.832472 -0.445446 -0.025558 0.414448 0.859934 1.295020 1.703379 2.069129 2.377766 2.617074 2.777948 2.855059 2.847315 2.758058 2.594992 2.369815 2.097586 1.795868 1.483687 1.180395 0.904516 0.672641 0.498473 0.392065 0.359318 0.401754 0.516581 0.697025 0.932905 1.211388 1.517870 1.836909 2.153154 2.452187 2.721255 2.949831 3.129998 3.256630 3.327402 3.342630 3.304977 3.219060 3.090993 2.927910 2.737492 2.527532 2.305557 2.078525 1.852593 1.632977 1.423872 1.228447 1.048890 0.886494 0.741771 0.614586 0.504285 0.409836 0.329940 0.263150 0.207949 0.162831 0.126353 0.097170 0.074066 0.055959 0.041910 0.031116 
-0.033800 -0.044935 -0.059249 -0.077472 -0.100442 -0.129105 -0.164500 -0.207743 -0.259990 -0.322393 -0.396040 -0.481876 -0.580609 -0.692608 -0.817784 -0.955465 -1.104284 -1.262066 -1.425742 -1.591302 -1.753785 -1.907337 -2.045325 -2.160537 -2.245451 -2.292574 -2.294852 -2.246116 -2.141551 -1.978161 -1.755180 -1.474412 -1.140446 -0.760728 -0.345457 0.092708 0.539128 0.977840 1.392355 1.766562 2.085676 2.337164 2.511588 2.603290 2.610870 2.537398 2.390354 2.181271 1.925097 1.639340 1.343015 1.055500 0.795362 0.579242 0.420880 0.330344 0.313511 0.371841 0.502435 0.698369 0.949279 1.242121 1.562067 1.893453 2.220719 2.529266 2.806201 3.040900 3.225404 3.354598 3.426223 3.440705 3.400861 3.311492 3.178919 3.010495 2.814121 2.597804 2.369269 2.135653 1.903268 1.677456 1.462510 1.261672 1.077176 0.910340 0.761680 0.631049 0.517772 0.420781 0.338741 0.270162 0.213485 0.167164 0.129713 0.099753 0.076034 0.057446 0.043023 0.031942 
-0.034924 -0.046453 -0.061281 -0.080172 -0.104002 -0.133763 -0.170547 -0.215530 -0.269938 -0.334999 -0.411886 -0.501632 -0.605039 -0.722570 -0.854224 -0.999415 -1.156848 -1.324401 -1.499039 -1.676754 -1.852555 -2.020516 -2.173895 -2.305323 -2.407076 -2.471419 -2.491016 -2.459385 -2.371376 -2.223647 -2.015089 -1.747176 -1.424199 -1.053346 -0.644614 -0.210520 0.234367 0.674084 1.092075 1.472095 1.799171 2.060540 2.246502 2.351125 2.372730 2.314127 2.182557 1.989343 1.749266 1.479700 1.199561 0.928161 0.684017 0.483737 0.341028 0.265918 0.264235 0.337367 0.482323 0.692070 0.956113 1.261269 1.592569 1.934210 2.270505 2.586754 2.869989 3.109546 3.297462 3.428656 3.500938 3.514837 3.473300 3.381277 3.245254 3.072754 2.871847 2.650703 2.417199 2.178604 1.941346 1.710860 1.491515 1.286603 1.098394 0.928222 0.776606 0.643390 0.527879 0.428982 0.345335 0.275415 0.217633 0.170409 0.132230 0.101688 0.077509 0.058559 0.043857 0.032562 
-0.035775 -0.047605 -0.062829 -0.082235 -0.106732 -0.137346 -0.175214 -0.221562 -0.277672 -0.344838 -0.424302 -0.517174 -0.624339 -0.746342 -0.883266 -1.034607 -1.199140 -1.374808 -1.558619 -1.746590 -1.933728 -2.114077 -2.280824 -2.426499 -2.543232 -2.623107 -2.658567 -2.642877 -2.570607 -2.438115 -2.243981 -1.989370 -1.678275 -1.317610 -0.917132 -0.489164 -0.048130 0.390091 0.808968 1.192221 1.524785 1.793752 1.989236 2.105085 2.139376 2.094666 1.977938 1.800269 1.576208 1.322913 1.059115 0.803960 0.575826 0.391200 0.263687 0.203226 0.215565 0.302017 0.459523 0.680980 0.955830 1.270829 1.610951 1.960348 2.303299 2.625086 2.912736 3.155606 3.345767 3.478200 3.550787 3.564150 3.521337 3.427414 3.288981 3.113681 2.909697 2.685306 2.448483 2.206583 1.966107 1.732548 1.510319 1.302747 1.112118 0.939777 0.786243 0.651351 0.534396 0.434267 0.349583 0.278798 0.220303 0.172498 0.133849 0.102933 0.078457 0.059276 0.044394 0.032960 
-0.036337 -0.048370 -0.063863 -0.083624 -0.108581 -0.139790 -0.178419 -0.225732 -0.283057 -0.351737 -0.433071 -0.528234 -0.638178 -0.763519 -0.904419 -1.060447 -1.230453 -1.412446 -1.603495 -1.799661 -1.995979 -2.186498 -2.364387 -2.522121 -2.651748 -2.745233 -2.794864 -2.793716 -2.736137 -2.618235 -2.438315 -2.197258 -1.898761 -1.549453 -1.158813 -0.738918 -0.303976 0.130303 0.547508 0.931422 1.266985 1.541234 1.744174 1.869486 1.915044 1.883155 1.780534 1.617967 1.409706 1.172621 0.925160 0.686210 0.473914 0.304554 0.191562 0.144740 0.169726 0.267763 0.435741 0.666541 0.949604 1.271709 1.617866 1.972279 2.319286 2.644237 2.934235 3.178713 3.369823 3.502626 3.575085 3.587902 3.544201 3.449119 3.309325 3.132522 2.926952 2.700938 2.462498 2.219022 1.977039 1.742064 1.518524 1.309756 1.118051 0.944752 0.790378 0.654758 0.537177 0.436518 0.351388 0.280233 0.221435 0.173382 0.134535 0.103460 0.078858 0.059579 0.044621 0.033129 
-0.036601 -0.048737 -0.064370 -0.084317 -0.109522 -0.141058 -0.180114 -0.227979 -0.286013 -0.355596 -0.438068 -0.534654 -0.646358 -0.773861 -0.917388 -1.076580 -1.250359 -1.436809 -1.633069 -1.835267 -2.038496 -2.236847 -2.423516 -2.590982 -2.731270 -2.836291 -2.898245 -2.910083 -2.865991 -2.761879 -2.595823 -2.368436 -2.083135 -1.746244 -1.366938 -0.956991 -0.530330 -0.102408 0.310577 0.692571 1.028615 1.305785 1.514049 1.646987 1.702297 1.682058 1.592693 1.444663 1.251863 1.030790 0.799525 0.576597 0.379821 0.225192 0.125898 0.091553 0.127666 0.235402 0.411632 0.649263 0.937809 1.264154 1.613439 1.970016 2.318379 2.644034 2.934235 3.178553 3.369264 3.501532 3.573407 3.585654 3.541447 3.445953 3.305858 3.128871 2.923227 2.697242 2.458918 2.215626 1.973880 1.739176 1.515927 1.307455 1.116041 0.943021 0.788905 0.653520 0.536150 0.435675 0.350704 0.279684 0.220998 0.173039 0.134268 0.103254 0.078701 0.059460 0.044532 0.033063 
-0.036565 -0.048703 -0.064344 -0.084309 -0.109548 -0.141140 -0.180285 -0.228287 -0.286519 -0.356386 -0.439256 -0.536385 -0.648821 -0.777291 -0.922078 -1.082886 -1.258711 -1.447715 -1.647121 -1.853143 -2.060961 -2.264747 -2.457770 -2.632567 -2.781203 -2.895598 -2.967933 -2.991102 -2.959192 -2.867967 -2.715314 -2.501611 -2.229999 -1.906490 -1.539925 -1.141724 -0.725464 -0.306261 0.099993 0.477505 0.811517 1.089229 1.300654 1.439326 1.502812 1.492965 1.415914 1.281752 1.103959 0.898586 0.683255 0.476047 0.294359 0.153813 0.067291 0.044168 0.089798 0.205272 0.387464 0.629361 0.920614 1.248295 1.597771 1.953637 2.300640 2.624528 2.912781 3.155168 3.344130 3.474957 3.545789 3.557444 3.513114 3.417955 3.278620 3.102765 2.898561 2.674254 2.437775 2.196426 1.956656 1.723908 1.502548 1.295862 1.106106 0.934597 0.781837 0.647649 0.531323 0.431745 0.347535 0.277154 0.218997 0.171471 0.133050 0.102317 0.077987 0.058920 0.044127 0.032762 
-0.036234 -0.048274 -0.063794 -0.083611 -0.108672 -0.140054 -0.178956 -0.226681 -0.284609 -0.354149 -0.436683 -0.533487 -0.645634 -0.773888 -0.918578 -1.079467 -1.255622 -1.445286 -1.645780 -1.853424 -2.063509 -2.270329 -2.467268 -2.646976 -2.801616 -2.923184 -3.003908 -3.036690 -3.015579 -2.936249 -2.796438 -2.596320 -2.338769 -2.029480 -1.676928 -1.292137 -0.888269 -0.480022 -0.082895 0.287674 0.617220 0.893159 1.105621 1.248155 1.318229 1.317492 1.251761 1.130729 0.967408 0.777327 0.577569 0.385676 0.218542 0.091337 0.016572 0.003341 0.056818 0.178022 0.363858 0.607435 0.898612 1.224732 1.571475 1.923775 2.266721 2.586391 2.870563 3.109261 3.295131 3.423613 3.492939 3.503965 3.459873 3.365769 3.228220 3.054774 2.853481 2.632458 2.399508 2.161814 1.925717 1.696567 1.478654 1.275208 1.088440 0.919643 0.769308 0.637258 0.522788 0.424803 0.341943 0.272691 0.215469 0.168707 0.130905 0.100667 0.076729 0.057970 0.043416 0.032234 
-0.035620 -0.047466 -0.062739 -0.082248 -0.106927 -0.137842 -0.176179 -0.223230 -0.280366 -0.348988 -0.430478 -0.526114 -0.636983 -0.763873 -0.907150 -1.066627 -1.241439 -1.429919 -1.629491 -1.836598 -2.046674 -2.254163 -2.452611 -2.634830 -2.793137 -2.919666 -3.006757 -3.047381 -3.035610 -2.967081 -2.839425 -2.652639 -2.409344 -2.114912 -1.777430 -1.407484 -1.017759 -0.622469 -0.236632 0.124756 0.447609 0.719639 0.931167 1.075810 1.150973 1.158112 1.102725 0.994072 0.844642 0.669381 0.484749 0.307672 0.154457 0.039752 -0.024365 -0.029120 0.030464 0.155334 0.342453 0.585101 0.873408 1.195066 1.536158 1.882047 2.218252 2.531262 2.809221 3.042466 3.223885 3.349086 3.416398 3.426704 3.383145 3.290737 3.155915 2.986065 2.789059 2.572827 2.344992 2.112570 1.881749 1.657752 1.444765 1.245935 1.063420 0.898478 0.751585 0.622563 0.510724 0.414994 0.334043 0.266388 0.210486 0.164805 0.127876 0.098338 0.074953 0.056628 0.042411 0.031488 
-0.034738 -0.046300 -0.061210 -0.080259 -0.104365 -0.134569 -0.172037 -0.218039 -0.273921 -0.341067 -0.420839 -0.514509 -0.623162 -0.747596 -0.888204 -1.044845 -1.216718 -1.402246 -1.598965 -1.803460 -2.011325 -2.217190 -2.414799 -2.597174 -2.756836 -2.886117 -2.977523 -3.024159 -3.020172 -2.961212 -2.844846 -2.670920 -2.441817 -2.162583 -1.840899 -1.486875 -1.112671 -0.731951 -0.359181 -0.008838 0.305452 0.571767 0.780681 0.925928 1.004882 1.018815 0.972894 0.875919 0.739807 0.578857 0.408838 0.245982 0.105939 0.002771 -0.051929 -0.049742 0.014096 0.140469 0.326426 0.565464 0.848051 1.162302 1.494787 1.831383 2.158127 2.461994 2.731560 2.957527 3.133061 3.253959 3.318649 3.328024 3.285163 3.194953 3.063650 2.898427 2.706924 2.496834 2.275546 2.049863 1.825780 1.608357 1.401649 1.208702 1.031603 0.871568 0.729053 0.603885 0.495390 0.402527 0.324002 0.258378 0.204155 0.159846 0.124028 0.095377 0.072697 0.054923 0.041134 0.030540 
-0.033611 -0.044805 -0.059244 -0.077695 -0.101049 -0.130319 -0.166638 -0.211243 -0.265445 -0.330595 -0.408028 -0.498989 -0.604552 -0.725513 -0.862280 -1.014751 -1.182186 -1.363096 -1.555139 -1.755050 -1.958607 -2.160647 -2.355150 -2.535384 -2.694125 -2.823948 -2.917582 -2.968315 -2.970425 -2.919617 -2.813432 -2.651594 -2.436262 -2.172158 -1.866543 -1.529023 -1.171194 -0.806113 -0.447638 -0.109661 0.194715 0.453997 0.659061 0.803796 0.885569 0.905471 0.868328 0.782450 0.659138 0.511986 0.356012 0.206687 0.078940 -0.013808 -0.060488 -0.053064 0.013008 0.138562 0.320760 0.553372 0.827261 1.131042 1.451853 1.776171 2.090626 2.382754 2.641628 2.858360 3.026430 3.141843 3.203125 3.211172 3.168972 3.081249 2.954039 2.794253 2.609249 2.406431 2.192911 1.975230 1.759156 1.549551 1.350312 1.164364 0.993711 0.839517 0.702216 0.581635 0.477123 0.387674 0.312040 0.248833 0.196609 0.153936 0.119440 0.091849 0.070006 0.052890 0.039611 0.029409 
-0.032266 -0.043017 -0.056887 -0.074616 -0.097058 -0.125193 -0.160111 -0.203004 -0.255141 -0.317827 -0.392354 -0.479933 -0.581609 -0.698167 -0.830021 -0.977095 -1.138709 -1.313459 -1.499128 -1.692609 -1.889878 -2.086003 -2.275224 -2.451090 -2.606666 -2.734818 -2.828540 -2.881350 -2.887698 -2.843388 -2.745967 -2.595064 -2.392632 -2.143073 -1.853218 -1.532156 -1.190883 -0.841817 -0.498159 -0.173169 0.120620 0.372188 0.572750 0.716377 0.800438 0.825846 0.797069 0.721894 0.610967 0.477128 0.334586 0.198000 0.081524 -0.002104 -0.042372 -0.031640 0.034415 0.156598 0.332222 0.555375 0.817386 1.107443 1.413328 1.722197 2.021353 2.298959 2.544643 2.749978 2.908785 3.017295 3.074137 3.080196 3.038350 2.953126 2.830298 2.676475 2.498684 2.303996 2.099199 1.890534 1.683502 1.482741 1.291961 1.113950 0.950611 0.803049 0.671671 0.556305 0.456323 0.370757 0.298412 0.237958 0.188011 0.147200 0.114211 0.087826 0.066939 0.050572 0.037874 0.028119 
-0.030731 -0.040974 -0.054192 -0.071088 -0.092481 -0.119304 -0.152599 -0.193506 -0.243238 -0.303046 -0.374168 -0.457765 -0.554847 -0.666172 -0.792149 -0.932724 -1.087262 -1.254448 -1.432184 -1.617531 -1.806668 -1.994909 -2.176773 -2.346114 -2.496321 -2.620577 -2.712181 -2.764916 -2.773443 -2.733696 -2.643262 -2.501699 -2.310768 -2.074561 -1.799484 -1.494094 -1.168777 -0.835284 -0.506135 -0.193928 0.089405 0.333338 0.529447 0.671993 0.758351 0.789245 0.768763 0.704140 0.605328 0.484367 0.354614 0.229867 0.123471 0.047450 0.011742 0.023583 0.087093 0.203070 0.369022 0.579414 0.826102 1.098921 1.386377 1.676381 1.956979 2.217027 2.446768 2.638271 2.785735 2.885631 2.936694 2.939788 2.897660 2.814610 2.696120 2.548450 2.378258 2.192238 1.996814 1.797889 1.600665 1.409522 1.227964 1.058620 0.903281 0.762982 0.638096 0.528451 0.433441 0.352142 0.283412 0.225984 0.178542 0.139780 0.108449 0.083392 0.063558 0.048016 0.035959 0.026697 
-0.029038 -0.038720 -0.051214 -0.067187 -0.087412 -0.112773 -0.144258 -0.182945 -0.229984 -0.286560 -0.353846 -0.432947 -0.524820 -0.630190 -0.749448 -0.882549 -1.028902 -1.187267 -1.355667 -1.531326 -1.710632 -1.889152 -2.061695 -2.222439 -2.365110 -2.483237 -2.570448 -2.620819 -2.629249 -2.591833 -2.506220 -2.371919 -2.190521 -1.965820 -1.703804 -1.412501 -1.101686 -0.782437 -0.466584 -0.166053 0.107829 0.345040 0.537514 0.679699 0.768961 0.805816 0.793945 0.739999 0.653199 0.544750 0.427116 0.313206 0.215529 0.145377 0.112111 0.122575 0.180705 0.287330 0.440204 0.634226 0.861849 1.113629 1.378870 1.646310 1.904810 2.143983 2.354731 2.529667 2.663394 2.752635 2.796238 2.795037 2.751630 2.670067 2.555500 2.413810 2.251246 2.074086 1.888353 1.699579 1.512633 1.331613 1.159795 0.999626 0.852775 0.720194 0.602218 0.498668 0.408962 0.332217 0.267349 0.213157 0.168394 0.131826 0.102272 0.078637 0.059930 0.045273 0.033903 0.025170 
-0.027220 -0.036297 -0.048011 -0.062987 -0.081950 -0.105730 -0.135252 -0.171529 -0.215637 -0.268689 -0.331786 -0.405961 -0.492112 -0.590916 -0.702739 -0.827533 -0.964739 -1.113186 -1.271010 -1.435592 -1.603527 -1.770634 -1.932018 -2.082184 -2.215209 -2.324978 -2.405464 -2.451056 -2.456909 -2.419298 -2.335959 -2.206370 -2.031970 -1.816275 -1.564867 -1.285264 -0.986637 -0.679407 -0.374722 -0.083850 0.182477 0.414722 0.605162 0.748405 0.841787 0.885582 0.883033 0.840174 0.765461 0.669232 0.563033 0.458861 0.368376 0.302140 0.268945 0.275266 0.324886 0.418715 0.554806 0.728558 0.933091 1.159754 1.398722 1.639634 1.872229 2.086931 2.275356 2.430694 2.547976 2.624200 2.658321 2.651144 2.605099 2.523963 2.412534 2.276280 2.121007 1.952546 1.776484 1.597950 1.421454 1.250786 1.088969 0.938258 0.800178 0.675591 0.564786 0.467572 0.383387 0.311388 0.250548 0.199734 0.157770 0.123495 0.095798 0.073653 0.056127 0.042397 0.031747 0.023567 
-0.025310 -0.033750 -0.044642 -0.058566 -0.076196 -0.098303 -0.125747 -0.159466 -0.200461 -0.249763 -0.308390 -0.377299 -0.457316 -0.549063 -0.652865 -0.768665 -0.895920 -1.033520 -1.179700 -1.331992 -1.487188 -1.641353 -1.789883 -1.927607 -2.048956 -2.148171 -2.219578 -2.257884 -2.258514 -2.217939 -2.133991 -2.006139 -1.835692 -1.625904 -1.381980 -1.110947 -0.821402 -0.523134 -0.226641 0.057438 0.318931 0.548754 0.739485 0.885860 0.985140 1.037322 1.045174 1.014077 0.951692 0.867463 0.772004 0.676389 0.591432 0.526976 0.491266 0.490443 0.528184 0.605532 0.720901 0.870256 1.047457 1.244718 1.453155 1.663372 1.866047 2.052473 2.215017 2.347484 2.445359 2.505920 2.528244 2.513093 2.462721 2.380615 2.271191 2.139481 1.990818 1.830556 1.663819 1.495305 1.329140 1.168782 1.016984 0.875788 0.746564 0.630072 0.526545 0.435774 0.357212 0.290054 0.233329 0.185968 0.146869 0.114942 0.089150 0.068532 0.052218 0.039439 0.029529 0.021919 
-0.023343 -0.031125 -0.041166 -0.054000 -0.070250 -0.090621 -0.115906 -0.146966 -0.184718 -0.230106 -0.284061 -0.347454 -0.421031 -0.505346 -0.600678 -0.706943 -0.823608 -0.949604 -1.083259 -1.222236 -1.363514 -1.503391 -1.637542 -1.761110 -1.868868 -1.955413 -2.015414 -2.043901 -2.036569 -1.990090 -1.902408 -1.772997 -1.603051 -1.395594 -1.155478 -0.889277 -0.605049 -0.311994 -0.020006 0.260855 0.520929 0.751528 0.945483 1.097603 1.205027 1.267429 1.287060 1.268614 1.218930 1.146544 1.061124 0.972828 0.891637 0.826698 0.785747 0.774633 0.796982 0.854029 0.944615 1.065342 1.210876 1.374365 1.547932 1.723209 1.891866 2.046110 2.179102 2.285289 2.360630 2.402699 2.410694 2.385334 2.328688 2.243936 2.135095 2.006738 1.863703 1.710843 1.552794 1.393800 1.237581 1.087245 0.945253 0.813422 0.692952 0.584490 0.488202 0.403857 0.330913 0.268600 0.215999 0.172104 0.135883 0.106318 0.082443 0.063363 0.048270 0.036452 0.027288 0.020252 
-0.021349 -0.028462 -0.037638 -0.049365 -0.064207 -0.082809 -0.105889 -0.134231 -0.168663 -0.210039 -0.259195 -0.316910 -0.383844 -0.460475 -0.547021 -0.643364 -0.748964 -0.862785 -0.983224 -1.108066 -1.234456 -1.358907 -1.477354 -1.585241 -1.677663 -1.749557 -1.795929 -1.812119 -1.794090 -1.738714 -1.644055 -1.509604 -1.336464 -1.127449 -0.887098 -0.621570 -0.338436 -0.046359 0.245313 0.527036 0.789593 1.024631 1.225167 1.386022 1.504157 1.578871 1.611857 1.607090 1.570566 1.509900 1.433820 1.351580 1.272351 1.204622 1.155664 1.131086 1.134524 1.167468 1.229250 1.317177 1.426787 1.552226 1.686682 1.822866 1.953490 2.071713 2.171522 2.248031 2.297689 2.318379 2.309421 2.271493 2.206468 2.117209 2.007324 1.880907 1.742286 1.595791 1.445554 1.295346 1.148462 1.007645 0.875050 0.752250 0.640267 0.539622 0.450405 0.372353 0.304925 0.247379 0.198842 0.158367 0.124989 0.097761 0.075783 0.058228 0.044347 0.033481 0.025059 0.018594 
-0.019358 -0.025802 -0.034113 -0.044729 -0.058160 -0.074985 -0.095850 -0.121455 -0.152542 -0.189867 -0.234172 -0.286135 -0.346325 -0.415136 -0.492717 -0.578904 -0.673137 -0.774397 -0.881136 -0.991239 -1.101998 -1.210121 -1.311779 -1.402691 -1.478258 -1.533733 -1.564438 -1.566011 -1.534672 -1.467491 -1.362652 -1.219675 -1.039588 -0.825030 -0.580259 -0.311068 -0.024594 0.270972 0.566759 0.853666 1.122847 1.366208 1.576879 1.749627 1.881172 1.970391 2.018378 2.028360 2.005474 1.956416 1.888982 1.811547 1.732506 1.659734 1.600088 1.558996 1.540163 1.545399 1.574594 1.625815 1.695536 1.778950 1.870363 1.963607 2.052472 2.131099 2.194325 2.237951 2.258929 2.255456 2.226981 2.174136 2.098598 2.002907 1.890250 1.764233 1.628662 1.487334 1.343861 1.201531 1.063199 0.931229 0.807459 0.693210 0.589309 0.496143 0.413720 0.341732 0.279634 0.226703 0.182108 0.144957 0.114347 0.089395 0.069268 0.053201 0.040504 0.030570 0.022873 0.016967 
-0.017399 -0.023183 -0.030639 -0.040157 -0.052193 -0.067259 -0.085928 -0.108819 -0.136582 -0.169879 -0.209349 -0.255571 -0.309016 -0.369987 -0.438558 -0.514507 -0.597244 -0.685750 -0.778517 -0.873509 -0.968143 -1.059297 -1.143355 -1.216284 -1.273762 -1.311334 -1.324616 -1.309524 -1.262517 -1.180858 -1.062849 -0.908046 -0.717424 -0.493471 -0.240207 0.036893 0.331067 0.634529 0.938811 1.235180 1.515078 1.770591 1.994891 2.182621 2.330203 2.436042 2.500599 2.526333 2.517516 2.479929 2.420457 2.346628 2.266105 2.186198 2.113405 2.053034 2.008917 1.983244 1.976517 1.987620 2.014007 2.051964 2.096946 2.143938 2.187833 2.223774 2.247462 2.255394 2.245034 2.214897 2.164564 2.094623 2.006552 1.902566 1.785428 1.658254 1.524320 1.386884 1.249035 1.113566 0.982889 0.858979 0.743348 0.637055 0.540728 0.454609 0.378612 0.312383 0.255359 0.206835 0.166011 0.132045 0.104090 0.081326 0.062980 0.048347 0.036791 0.027755 0.020758 0.015393 
-0.015495 -0.020637 -0.027260 -0.035709 -0.046383 -0.059732 -0.076254 -0.096488 -0.120994 -0.150338 -0.185057 -0.225629 -0.272422 -0.325645 -0.385291 -0.451070 -0.522354 -0.598108 -0.676847 -0.756598 -0.834878 -0.908713 -0.974669 -1.028935 -1.067437 -1.085985 -1.080461 -1.047035 -0.982391 -0.883970 -0.750189 -0.580650 -0.376287 -0.139467 0.125992 0.414881 0.720754 1.036162 1.352968 1.662726 1.957091 2.228253 2.469351 2.674842 2.840798 2.965113 3.047585 3.089895 3.095452 3.069139 3.016962 2.945637 2.862144 2.773280 2.685243 2.603275 2.531392 2.472213 2.426899 2.395192 2.375555 2.365396 2.361338 2.359537 2.355994 2.346862 2.328710 2.298735 2.254911 2.196076 2.121939 2.033048 1.930684 1.816739 1.693554 1.563756 1.430097 1.295295 1.161915 1.032258 0.908288 0.791588 0.683343 0.584344 0.495011 0.415440 0.345442 0.284608 0.232354 0.187982 0.150719 0.119766 0.094328 0.073640 0.056986 0.043716 0.033246 0.025067 0.018738 0.013888 
-0.013669 -0.018193 -0.024015 -0.031435 -0.040797 -0.052490 -0.066941 -0.084609 -0.105966 -0.131482 -0.161596 -0.196681 -0.237004 -0.282678 -0.333608 -0.389433 -0.449473 -0.512670 -0.577548 -0.642173 -0.704149 -0.760618 -0.808308 -0.843601 -0.862639 -0.861468 -0.836211 -0.783267 -0.699525 -0.582589 -0.430990 -0.244376 -0.023656 0.228899 0.509635 0.813565 1.134500 1.465266 1.797987 2.124430 2.436391 2.726094 2.986584 3.212077 3.398254 3.542463 3.643832 3.703258 3.723304 3.707978 3.662445 3.592655 3.504958 3.405690 3.300801 3.195518 3.094089 2.999600 2.913901 2.837615 2.770232 2.710287 2.655575 2.603416 2.550918 2.495233 2.433789 2.364475 2.285772 2.196832 2.097499 1.988276 1.870256 1.745012 1.614473 1.480788 1.346187 1.212865 1.082866 0.958004 0.839804 0.729460 0.627828 0.535431 0.452482 0.378922 0.314459 0.258622 0.210800 0.170295 0.136357 0.108223 0.085142 0.066402 0.051338 0.039350 0.029902 0.022529 0.016830 0.012467 
-0.011938 -0.015876 -0.020937 -0.027378 -0.035493 -0.045610 -0.058088 -0.073309 -0.091661 -0.113520 -0.139229 -0.169058 -0.203175 -0.241595 -0.284134 -0.330357 -0.379525 -0.430548 -0.481945 -0.531811 -0.577811 -0.617188 -0.646805 -0.663207 -0.662730 -0.641626 -0.596230 -0.523148 -0.419454 -0.282902 -0.112129 0.093170 0.332096 0.602454 0.900722 1.222090 1.560580 1.909234 2.260373 2.605919 2.937743 3.248048 3.529734 3.776735 3.984312 4.149256 4.270018 4.346729 4.381126 4.376384 4.336867 4.267812 4.174988 4.064325 3.941571 3.811983 3.680068 3.549408 3.422555 3.301015 3.185302 3.075063 2.969248 2.866319 2.764464 2.661813 2.556632 2.447482 2.333337 2.213657 2.088415 1.958077 1.823549 1.686101 1.547262 1.408715 1.272192 1.139374 1.011803 0.890822 0.777523 0.672722 0.576954 0.490478 0.413301 0.345208 0.285805 0.234551 0.190807 0.153870 0.123006 0.097482 0.076588 0.059656 0.046070 0.035275 0.026780 0.020159 0.015047 0.011137 
-0.010317 -0.013705 -0.018052 -0.023575 -0.030517 -0.039153 -0.049776 -0.062694 -0.078215 -0.096627 -0.118177 -0.143042 -0.171288 -0.202838 -0.237417 -0.274516 -0.313334 -0.352744 -0.391248 -0.426959 -0.457590 -0.480466 -0.492561 -0.490565 -0.470978 -0.430235 -0.364860 -0.271640 -0.147816 0.008719 0.199233 0.423980 0.682065 0.971349 1.288415 1.628598 1.986085 2.354088 2.725077 3.091076 3.443987 3.775948 4.079678 4.348811 4.578172 4.763998 4.904079 4.997804 5.046125 5.051426 5.017324 4.948396 4.849880 4.727348 4.586389 4.432314 4.269915 4.103270 3.935630 3.769367 3.605991 3.446227 3.290141 3.137292 2.986908 2.838055 2.689802 2.541354 2.392158 2.241969 2.090883 1.939329 1.788042 1.637998 1.490347 1.346332 1.207205 1.074159 0.948258 0.830392 0.721241 0.621258 0.530667 0.449474 0.377484 0.314334 0.259522 0.212443 0.172423 0.138751 0.110705 0.087578 0.068695 0.053428 0.041203 0.031508 0.023893 0.017966 0.013397 0.009907 
-0.008817 -0.011695 -0.015381 -0.020051 -0.025907 -0.033168 -0.042069 -0.052848 -0.065737 -0.080942 -0.098623 -0.118863 -0.141637 -0.166775 -0.193920 -0.222484 -0.251610 -0.280125 -0.306516 -0.328902 -0.345034 -0.352304 -0.347781 -0.328280 -0.290444 -0.230872 -0.146252 -0.033535 0.109887 0.285999 0.495977 0.740027 1.017251 1.325554 1.661603 2.020849 2.397616 2.785248 3.176331 3.562952 3.937017 4.290572 4.616145 4.907059 5.157716 5.363817 5.522520 5.632515 5.694018 5.708679 5.679420 5.610215 5.505823 5.371498 5.212698 5.034810 4.842908 4.641558 4.434683 4.225480 4.016407 3.809211 3.605009 3.404397 3.207581 3.014511 2.825007 2.638882 2.456025 2.276468 2.100423 1.928289 1.760634 1.598165 1.441676 1.291994 1.149927 1.016208 0.891452 0.776125 0.670519 0.574746 0.488739 0.412260 0.344926 0.286231 0.235571 0.192276 0.155638 0.124937 0.099458 0.078517 0.061470 0.047724 0.036744 0.028056 0.021245 0.015955 0.011883 0.008777 
-0.007444 -0.009857 -0.012937 -0.016827 -0.021688 -0.027690 -0.035012 -0.043830 -0.054307 -0.066573 -0.080704 -0.096699 -0.114448 -0.133696 -0.154007 -0.174724 -0.194928 -0.213410 -0.228635 -0.238727 -0.241467 -0.234303 -0.214392 -0.178656 -0.123869 -0.046770 0.055800 0.186743 0.348534 0.543044 0.771364 1.033656 1.329015 1.655380 2.009489 2.386894 2.782031 3.188359 3.598551 4.004749 4.398843 4.772787 5.118921 5.430273 5.700847 5.925846 6.101844 6.226888 6.300517 6.323708 6.298753 6.229078 6.119007 5.973511 5.797939 5.597756 5.378303 5.144605 4.901208 4.652077 4.400542 4.149297 3.900428 3.655488 3.415583 3.181472 2.953673 2.732553 2.518410 2.311530 2.112232 1.920885 1.737908 1.563756 1.398898 1.243781 1.098801 0.964270 0.840391 0.727238 0.624748 0.532717 0.450808 0.378563 0.315423 0.260748 0.213841 0.173970 0.140397 0.112388 0.089238 0.070281 0.054901 0.042537 0.032689 0.024916 0.018837 0.014125 0.010505 0.007749 
-0.006204 -0.008195 -0.010728 -0.013914 -0.017875 -0.022739 -0.028634 -0.035682 -0.043979 -0.053587 -0.064511 -0.076671 -0.089881 -0.103809 -0.117948 -0.131576 -0.143726 -0.153149 -0.158295 -0.157292 -0.147949 -0.127769 -0.093986 -0.043620 0.026434 0.119307 0.238020 0.385342 0.563622 0.774626 1.019372 1.297976 1.609526 1.951994 2.322182 2.715732 3.127183 3.550099 3.977241 4.400797 4.812651 5.204679 5.569054 5.898549 6.186811 6.428599 6.619969 6.758389 6.842794 6.873556 6.852401 6.782260 6.667069 6.511542 6.320925 6.100750 5.856602 5.593910 5.317778 5.032860 4.743271 4.452549 4.163653 3.878992 3.600481 3.329608 3.067513 2.815063 2.572922 2.341604 2.121525 1.913024 1.716386 1.531841 1.359562 1.199656 1.052149 0.916973 0.793959 0.682832 0.583207 0.494598 0.416426 0.348033 0.288703 0.237676 0.194171 0.157405 0.126607 0.101036 0.079994 0.062833 0.048961 0.037847 0.029023 0.022077 0.016659 0.012470 0.009260 0.006820 
-0.005097 -0.006712 -0.008757 -0.011314 -0.014473 -0.018323 -0.022949 -0.028419 -0.034776 -0.042021 -0.050094 -0.058848 -0.068028 -0.077238 -0.085907 -0.093260 -0.098288 -0.099713 -0.095974 -0.085207 -0.065252 -0.033666 0.012241 0.075353 0.158664 0.265179 0.397791 0.559141 0.751464 0.976428 1.234980 1.527196 1.852162 2.207879 2.591214 2.997898 3.422578 3.858925 4.299794 4.737437 5.163755 5.570575 5.949949 6.294441 6.597406 6.853229 7.057520 7.207250 7.300825 7.338089 7.320267 7.249848 7.130416 6.966449 6.763090 6.525917 6.260708 5.973237 5.669086 5.353497 5.031263 4.706656 4.383390 4.064620 3.752966 3.450551 3.159057 2.879789 2.613727 2.361587 2.123864 1.900874 1.692781 1.499617 1.321297 1.157625 1.008304 0.872932 0.751017 0.641974 0.545138 0.459776 0.385098 0.320275 0.264452 0.216769 0.176371 0.142430 0.114153 0.090793 0.071660 0.056122 0.043612 0.033626 0.025724 0.019525 0.014702 0.010984 0.008141 0.005986 
-0.004121 -0.005405 -0.007020 -0.009025 -0.011480 -0.014440 -0.017952 -0.022039 -0.026699 -0.031878 -0.037460 -0.043244 -0.048916 -0.054024 -0.057948 -0.059872 -0.058752 -0.053293 -0.041931 -0.022820 0.006163 0.047405 0.103517 0.177287 0.271595 0.389327 0.533251 0.705885 0.909353 1.145232 1.414401 1.716902 2.051822 2.417196 2.809963 3.225950 3.659920 4.105668 4.556163 5.003752 5.440386 5.857895 6.248261 6.603909 6.917977 7.184555 7.398895 7.557555 7.658497 7.701113 7.686193 7.615836 7.493307 7.322861 7.109527 6.858894 6.576883 6.269531 5.942803 5.602423 5.253739 4.901633 4.550449 4.203967 3.865396 3.537393 3.222100 2.921188 2.635905 2.367134 2.115438 1.881111 1.664211 1.464600 1.281972 1.115874 0.965729 0.830855 0.710481 0.603761 0.509794 0.427638 0.356326 0.294884 0.242345 0.197764 0.160231 0.128881 0.102906 0.081558 0.064156 0.050088 0.038808 0.029840 0.022768 0.017238 0.012951 0.009654 0.007141 0.005241 
-0.003271 -0.004269 -0.005512 -0.007039 -0.008884 -0.011076 -0.013625 -0.016523 -0.019722 -0.023128 -0.026579 -0.029825 -0.032508 -0.034132 -0.034041 -0.031387 -0.025107 -0.013900 0.003790 0.029780 0.066150 0.115218 0.179513 0.261721 0.364610 0.490941 0.643358 0.824258 1.035656 1.279042 1.555230 1.864235 2.205147 2.576047 2.973951 3.394799 3.833488 4.283958 4.739329 5.192076 5.634254 6.057749 6.454546 6.817006 7.138133 7.411813 7.633031 7.798025 7.904399 7.951171 7.938760 7.868924 7.744639 7.569940 7.349728 7.089561 6.795435 6.473569 6.130205 5.771429 5.403022 5.030337 4.658219 4.290943 3.932191 3.585050 3.252030 2.935096 2.635716 2.354904 2.093278 1.851107 1.628363 1.424766 1.239825 1.072875 0.923111 0.789618 0.671395 0.567387 0.476498 0.397618 0.329639 0.271473 0.222064 0.180405 0.145543 0.116592 0.092734 0.073227 0.057402 0.044667 0.034500 0.026449 0.020124 0.015197 0.011389 0.008470 0.006251 0.004578 
-0.002543 -0.003295 -0.004220 -0.005339 -0.006667 -0.008206 -0.009941 -0.011833 -0.013802 -0.015718 -0.017383 -0.018512 -0.018712 -0.017457 -0.014065 -0.007671 0.002794 0.018624 0.041352 0.072758 0.114862 0.169909 0.240334 0.328715 0.437699 0.569922 0.727899 0.913906 1.129851 1.377133 1.656510 1.967970 2.310616 2.682584 3.080982 3.501879 3.940329 4.390452 4.845550 5.298279 5.740850 6.165275 6.563615 6.928250 7.252140 7.529063 7.753831 7.922454 8.032267 8.081989 8.071732 8.002958 7.878377 7.701806 7.477995 7.212425 6.911098 6.580324 6.226513 5.855992 5.474840 5.088752 4.702934 4.322029 3.950072 3.590475 3.246026 2.918915 2.610771 2.322711 2.055389 1.809053 1.583605 1.378650 1.193549 1.027471 0.879428 0.748323 0.632980 0.532177 0.444671 0.369223 0.304622 0.249693 0.203320 0.164452 0.132112 0.105402 0.083508 0.065695 0.051315 0.039795 0.030638 0.023415 0.017764 0.013377 0.009999 0.007417 0.005461 0.003991 
-0.001927 -0.002472 -0.003131 -0.003909 -0.004804 -0.005800 -0.006860 -0.007920 -0.008876 -0.009570 -0.009778 -0.009190 -0.007389 -0.003831 0.002180 0.011510 0.025222 0.044588 0.071108 0.106507 0.152737 0.211955 0.286493 0.378811 0.491431 0.626854 0.787463 0.975409 1.192491 1.440021 1.718700 2.028496 2.368532 2.737009 3.131144 3.547153 3.980279 4.424849 4.874394 5.321800 5.759497 6.179689 6.574592 6.936692 7.258995 7.535265 7.760238 7.929788 8.041062 8.092557 8.084136 8.017006 7.893631 7.717611 7.493516 7.226703 6.923108 6.589037 6.230965 5.855337 5.468400 5.076056 4.683741 4.296340 3.918126 3.552727 3.203125 2.871665 2.560088 2.269578 2.000811 1.754016 1.529038 1.325394 1.142337 0.978906 0.833984 0.706339 0.594665 0.497621 0.413861 0.342060 0.280931 0.229250 0.185862 0.149695 0.119762 0.095168 0.075109 0.058869 0.045819 0.035410 0.027172 0.020701 0.015658 0.011757 0.008763 0.006484 0.004762 0.003472 
-0.001414 -0.001789 -0.002229 -0.002727 -0.003268 -0.003822 -0.004334 -0.004724 -0.004867 -0.004588 -0.003646 -0.001712 0.001642 0.006966 0.014957 0.026471 0.042550 0.064434 0.093570 0.131621 0.180454 0.242129 0.318863 0.412989 0.526892 0.662935 0.823362 1.010195 1.225121 1.469366 1.743576 2.047701 2.380896 2.741435 3.126661 3.532961 3.955789 4.389720 4.828554 5.265458 5.693142 6.104070 6.490693 6.845683 7.162183 7.434036 7.655987 7.823865 7.934710 7.986863 7.979996 7.915096 7.794400 7.621285 7.400117 7.136078 6.834968 6.503006 6.146620 5.772260 5.386218 4.994474 4.602572 4.215515 3.837702 3.472886 3.124155 2.793942 2.484055 2.195711 1.929596 1.685921 1.464486 1.264747 1.085881 0.926842 0.786423 0.663303 0.556094 0.463381 0.383754 0.315837 0.258306 0.209912 0.169488 0.135958 0.108344 0.085764 0.067434 0.052661 0.040842 0.031457 0.024059 0.018271 0.013778 0.010315 0.007667 0.005658 0.004144 0.003014 
-0.000994 -0.001232 -0.001495 -0.001769 -0.002028 -0.002231 -0.002312 -0.002177 -0.001690 -0.000664 0.001153 0.004094 0.008592 0.015194 0.024582 0.037594 0.055237 0.078705 0.109383 0.148855 0.198895 0.261451 0.338617 0.432589 0.545607 0.679885 0.837527 1.020420 1.230137 1.467816 1.734051 2.028780 2.351192 2.699651 3.071637 3.463731 3.871625 4.290173 4.713487 5.135063 5.547948 5.944932 6.318769 6.662399 6.969184 7.233126 7.449070 7.612875 7.721549 7.773341 7.767777 7.705663 7.589023 7.421004 7.205744 6.948203 6.653983 6.329129 5.979930 5.612733 5.233758 4.848951 4.463841 4.083444 3.712185 3.353847 3.011551 2.687759 2.384298 2.102393 1.842723 1.605483 1.390444 1.197022 1.024348 0.871328 0.736706 0.619114 0.517124 0.429287 0.354167 0.290371 0.236570 0.191514 0.154046 0.123106 0.097738 0.077086 0.060394 0.046998 0.036326 0.027885 0.021258 0.016094 0.012099 0.009031 0.006694 0.004926 0.003599 0.002610 
-0.000658 -0.000787 -0.000911 -0.001010 -0.001050 -0.000983 -0.000736 -0.000206 0.000748 0.002320 0.004765 0.008414 0.013693 0.021136 0.031406 0.045305 0.063799 0.088021 0.119285 0.159086 0.209091 0.271130 0.347160 0.439232 0.549436 0.679833 0.832376 1.008817 1.210611 1.438810 1.693954 1.975975 2.284106 2.616804 2.971706 3.345601 3.734443 4.133398 4.536923 4.938887 5.332725 5.711610 6.068664 6.397164 6.690762 6.943698 7.150987 7.308592 7.413552 7.464080 7.459604 7.400773 7.289413 7.128438 6.921735 6.674002 6.390583 6.077277 5.740150 5.385348 5.018922 4.646673 4.274021 3.905893 3.546647 3.200020 2.869098 2.556318 2.263486 1.991810 1.741954 1.514093 1.307980 1.123014 0.958308 0.812752 0.685076 0.573903 0.477802 0.395325 0.325043 0.265579 0.215622 0.173949 0.139430 0.111039 0.087854 0.069053 0.053917 0.041818 0.032216 0.024651 0.018734 0.014139 0.010598 0.007888 0.005830 0.004278 0.003118 0.002255 
-0.000394 -0.000439 -0.000458 -0.000424 -0.000302 -0.000036 0.000450 0.001261 0.002543 0.004487 0.007345 0.011441 0.017187 0.025096 0.035799 0.050060 0.068788 0.093050 0.124078 0.163267 0.212173 0.272493 0.346046 0.434730 0.540477 0.665189 0.810666 0.978524 1.170098 1.386351 1.627775 1.894297 2.185197 2.499039 2.833623 3.185963 3.552297 3.928121 4.308273 4.687029 5.058250 5.415545 5.752455 6.062651 6.340140 6.579458 6.775858 6.925464 7.025406 7.073904 7.070327 7.015196 6.910147 6.757863 6.561956 6.326832 6.057528 5.759536 5.438624 5.100657 4.751430 4.396514 4.041128 3.690029 3.347432 3.016958 2.701601 2.403728 2.125088 1.866853 1.629659 1.413664 1.218613 1.043906 0.888660 0.751777 0.632005 0.527990 0.438328 0.361605 0.296428 0.241459 0.195432 0.157166 0.125580 0.099692 0.078625 0.061604 0.047949 0.037073 0.028473 0.021720 0.016457 0.012384 0.009255 0.006869 0.005063 0.003706 0.002693 0.001943 
-0.000192 -0.000175 -0.000116 0.000013 0.000251 0.000655 0.001303 0.002300 0.003790 0.005958 0.009048 0.013372 0.019320 0.027378 0.038139 0.052319 0.070768 0.094476 0.124585 0.162386 0.209314 0.266932 0.336911 0.420993 0.520948 0.638517 0.775347 0.932912 1.112430 1.314777 1.540395 1.789212 2.060558 2.353109 2.664838 2.992995 3.334113 3.684041 4.038012 4.390742 4.736551 5.069515 5.383637 5.673029 5.932099 6.155734 6.339470 6.479645 6.573520 6.619370 6.616531 6.565419 6.467496 6.325206 6.141879 5.921599 5.669060 5.389396 5.088022 4.770456 4.442166 4.108422 3.774171 3.443931 3.121712 2.810962 2.514538 2.234695 1.973104 1.730878 1.508619 1.306469 1.124174 0.961146 0.816529 0.689260 0.578130 0.481834 0.399021 0.328336 0.268447 0.218077 0.176019 0.141157 0.112467 0.089026 0.070010 0.054695 0.042448 0.032725 0.025061 0.019063 0.014402 0.010808 0.008055 0.005962 0.004383 0.003199 0.002319 0.001669 
-0.000042 0.000018 0.000131 0.000325 0.000640 0.001132 0.001878 0.002982 0.004580 0.006850 0.010025 0.014396 0.020329 0.028279 0.038795 0.052540 0.070296 0.092975 0.121625 0.157426 0.201688 0.255837 0.321393 0.399942 0.493090 0.602417 0.729415 0.875418 1.041528 1.228534 1.436834 1.666355 1.916482 2.186007 2.473079 2.775191 3.089179 3.411256 3.737066 4.061777 4.380189 4.686872 4.976320 5.243116 5.482104 5.688556 5.858333 5.988023 6.075055 6.117785 6.115548 6.068672 5.978453 5.847104 5.677662 5.473872 5.240055 4.980958 4.701593 4.407086 4.102525 3.792824 3.482602 3.176087 2.877035 2.588680 2.313701 2.054218 1.811796 1.587480 1.381829 1.194972 1.026661 0.876334 0.743175 0.626175 0.524188 0.435980 0.360274 0.295792 0.241281 0.195542 0.157446 0.125947 0.100093 0.079026 0.061984 0.048297 0.037383 0.028743 0.021953 0.016654 0.012549 0.009392 0.006982 0.005155 0.003779 0.002752 0.001990 0.001429 
0.000064 0.000153 0.000300 0.000534 0.000894 0.001433 0.002227 0.003373 0.005000 0.007276 0.010416 0.014692 0.020441 0.028081 0.038117 0.051153 0.067903 0.089195 0.115980 0.149327 0.190420 0.240546 0.301076 0.373438 0.459077 0.559413 0.675786 0.809392 0.961220 1.131975 1.322011 1.531257 1.759156 2.004614 2.265962 2.540933 2.826671 3.119753 3.416242 3.711763 4.001608 4.280850 4.544489 4.787599 5.005481 5.193817 5.348816 5.467342 5.547016 5.586302 5.584551 5.542021 5.459855 5.340037 5.185308 4.999068 4.785251 4.548187 4.292464 4.022780 3.743807 3.460065 3.175809 2.894937 2.620917 2.356738 2.104878 1.867295 1.645439 1.440272 1.252311 1.081669 0.928110 0.791106 0.669895 0.563535 0.470956 0.391012 0.322514 0.264277 0.215140 0.173992 0.139793 0.111579 0.088474 0.069691 0.054533 0.042390 0.032732 0.025106 0.019128 0.014476 0.010881 0.008124 0.006024 0.004437 0.003245 0.002357 0.001701 0.001218 
0.000135 0.000241 0.000408 0.000661 0.001040 0.001595 0.002396 0.003534 0.005129 0.007336 0.010352 0.014425 0.019864 0.027046 0.036429 0.048559 0.064078 0.083733 0.108375 0.138963 0.176556 0.222305 0.277433 0.343214 0.420936 0.511862 0.617186 0.737971 0.875095 1.029183 1.200547 1.389120 1.594403 1.815416 2.050666 2.298128 2.555247 2.818962 3.085749 3.351691 3.612565 3.863954 4.101364 4.320364 4.516722 4.686541 4.826392 4.933427 5.005478 5.041131 5.039770 5.001597 4.927611 4.819575 4.679941 4.511760 4.318572 4.104285 3.873044 3.629103 3.376699 3.119933 2.862675 2.608471 2.360479 2.121422 1.893559 1.678678 1.478100 1.292702 1.122952 0.968948 0.830473 0.707039 0.597943 0.502321 0.419192 0.347502 0.286166 0.234097 0.190237 0.153571 0.123152 0.098105 0.077634 0.061027 0.047653 0.036963 0.028479 0.021796 0.016569 0.012511 0.009383 0.006990 0.005171 0.003800 0.002773 0.002010 0.001447 0.001034 
0.000178 0.000292 0.000466 0.000724 0.001103 0.001649 0.002427 0.003520 0.005038 0.007121 0.009948 0.013743 0.018782 0.025404 0.034020 0.045115 0.059262 0.077125 0.099460 0.127117 0.161035 0.202231 0.251787 0.310827 0.380489 0.461887 0.556072 0.663981 0.786387 0.923839 1.076609 1.244636 1.427477 1.624263 1.833673 2.053915 2.282728 2.517401 2.754812 2.991490 3.223689 3.447487 3.658893 3.853963 4.028928 4.180311 4.305047 4.400583 4.464969 4.496924 4.495874 4.461975 4.396097 4.299791 4.175226 4.025113 3.852602 3.661179 3.454547 3.236509 3.010860 2.781278 2.551235 2.323916 2.102160 1.888416 1.684717 1.492671 1.313466 1.147892 0.996368 0.858980 0.735527 0.625567 0.528464 0.443433 0.369588 0.305978 0.251620 0.205536 0.166771 0.134413 0.107610 0.085577 0.067600 0.053042 0.041341 0.032005 0.024611 0.018798 0.014261 0.010747 0.008043 0.005979 0.004414 0.003237 0.002357 0.001705 0.001225 0.000874 
0.000200 0.000316 0.000487 0.000739 0.001103 0.001623 0.002356 0.003378 0.004788 0.006711 0.009306 0.012773 0.017357 0.023359 0.031140 0.041131 0.053835 0.069836 0.089799 0.114470 0.144671 0.181293 0.225285 0.277628 0.339316 0.411324 0.494568 0.589867 0.697894 0.819126 0.953801 1.101862 1.262920 1.436213 1.620585 1.814464 2.015869 2.222426 2.431396 2.639735 2.844154 3.041209 3.227391 3.399229 3.553404 3.686848 3.796852 3.881158 3.938031 3.966327 3.965522 3.935737 3.877722 3.792828 3.682957 3.550491 3.398202 3.229165 3.046648 2.854016 2.654625 2.451734 2.248419 2.047507 1.851518 1.662626 1.482638 1.312982 1.154714 1.008534 0.874814 0.753629 0.644798 0.547924 0.462438 0.387641 0.322740 0.266888 0.219210 0.178834 0.144912 0.116632 0.093239 0.074036 0.058392 0.045743 0.035593 0.027508 0.021116 0.016100 0.012192 0.009170 0.006851 0.005083 0.003746 0.002741 0.001993 0.001438 0.001031 0.000734 
0.000207 0.000318 0.000481 0.000719 0.001058 0.001540 0.002215 0.003150 0.004432 0.006172 0.008511 0.011624 0.015726 0.021080 0.028003 0.036869 0.048118 0.062257 0.079865 0.101589 0.128144 0.160302 0.198883 0.244739 0.298731 0.361700 0.434439 0.517656 0.611931 0.717678 0.835099 0.964145 1.104476 1.255433 1.416010 1.584847 1.760225 1.940082 2.122043 2.303465 2.481492 2.653128 2.815321 2.965051 3.099425 3.215767 3.311710 3.385278 3.434949 3.459712 3.459101 3.433204 3.382665 3.308651 3.212811 3.097215 2.964280 2.816686 2.657286 2.489020 2.314826 2.137555 1.959903 1.784347 1.613096 1.448060 1.290821 1.142635 1.004429 0.876816 0.760122 0.654410 0.559520 0.475102 0.400654 0.335559 0.279119 0.230588 0.189197 0.154179 0.124788 0.100313 0.080091 0.063512 0.050023 0.039131 0.030403 0.023462 0.017982 0.013688 0.010349 0.007771 0.005796 0.004293 0.003158 0.002307 0.001674 0.001206 0.000863 0.000614 
0.000202 0.000306 0.000457 0.000674 0.000984 0.001420 0.002028 0.002866 0.004011 0.005559 0.007633 0.010384 0.013999 0.018707 0.024779 0.032540 0.042368 0.054702 0.070038 0.088932 0.111999 0.139902 0.173344 0.213056 0.259774 0.314221 0.377076 0.448943 0.530319 0.621559 0.722833 0.834099 0.955065 1.085163 1.223532 1.369001 1.520096 1.675047 1.831812 1.988120 2.141515 2.289421 2.429211 2.558283 2.674142 2.774480 2.857254 2.920751 2.963653 2.985080 2.984618 2.962335 2.918778 2.854944 2.772251 2.672478 2.557707 2.430252 2.292576 2.147220 1.996724 1.843556 1.690050 1.538353 1.390379 1.247783 1.111940 0.983937 0.864578 0.754396 0.653670 0.562457 0.480615 0.407839 0.343691 0.287635 0.239064 0.197329 0.161761 0.131694 0.106482 0.085506 0.068193 0.054014 0.042490 0.033197 0.025759 0.019851 0.015194 0.011549 0.008719 0.006537 0.004868 0.003600 0.002644 0.001929 0.001397 0.001005 0.000718 0.000510 
0.000189 0.000284 0.000420 0.000616 0.000892 0.001279 0.001817 0.002556 0.003561 0.004917 0.006727 0.009123 0.012265 0.016347 0.021603 0.028309 0.036789 0.047414 0.060610 0.076848 0.096652 0.120584 0.149244 0.183249 0.223226 0.269788 0.323510 0.384905 0.454395 0.532277 0.618698 0.713621 0.816795 0.927740 1.045722 1.169746 1.298560 1.430658 1.564304 1.697566 1.828353 1.954473 2.073688 2.183779 2.282619 2.368238 2.438888 2.493106 2.529761 2.548095 2.547748 2.528773 2.491627 2.437157 2.366567 2.281374 2.183352 2.074475 1.956848 1.832643 1.704032 1.573129 1.441930 1.312275 1.185805 1.063938 0.947852 0.838480 0.736512 0.642403 0.556393 0.478530 0.408691 0.346612 0.291919 0.244149 0.202780 0.167255 0.137000 0.111442 0.090027 0.072226 0.057545 0.045533 0.035781 0.027924 0.021643 0.016659 0.012735 0.009668 0.007289 0.005458 0.004059 0.002997 0.002198 0.001601 0.001158 0.000832 0.000594 0.000420 
0.000172 0.000256 0.000377 0.000549 0.000791 0.001129 0.001597 0.002238 0.003107 0.004277 0.005835 0.007894 0.010588 0.014082 0.018574 0.024297 0.031525 0.040571 0.051793 0.065589 0.082398 0.102696 0.126984 0.155784 0.189622 0.229013 0.274439 0.326332 0.385044 0.450828 0.523803 0.603939 0.691025 0.784656 0.884214 0.988863 1.097548 1.209001 1.321761 1.434202 1.544561 1.650991 1.751604 1.844530 1.927973 2.000268 2.059939 2.105746 2.136730 2.152247 2.151989 2.135994 2.104645 2.058651 1.999026 1.927048 1.844216 1.752195 1.652765 1.547763 1.439026 1.328343 1.217407 1.107775 1.000837 0.897796 0.799651 0.707193 0.621005 0.541475 0.468806 0.403037 0.344063 0.291661 0.245511 0.205219 0.170344 0.140411 0.114932 0.093423 0.075412 0.060452 0.048123 0.038044 0.029867 0.023286 0.018030 0.013863 0.010586 0.008028 0.006045 0.004521 0.003358 0.002477 0.001814 0.001320 0.000953 0.000684 0.000487 0.000345 
0.000153 0.000226 0.000331 0.000480 0.000688 0.000979 0.001380 0.001927 0.002669 0.003664 0.004989 0.006734 0.009015 0.011969 0.015762 0.020589 0.026678 0.034291 0.043726 0.055316 0.069426 0.086453 0.106815 0.130946 0.159283 0.192254 0.230263 0.273666 0.322758 0.377747 0.438734 0.505692 0.578445 0.656656 0.739809 0.827208 0.917974 1.011051 1.105220 1.199124 1.291296 1.380192 1.464237 1.541871 1.611591 1.672007 1.721883 1.760182 1.786100 1.799094 1.798903 1.785556 1.759369 1.720932 1.671089 1.610908 1.541640 1.464677 1.381507 1.293667 1.202697 1.110093 1.017274 0.925544 0.836071 0.749861 0.667753 0.590410 0.518322 0.451812 0.391052 0.336073 0.286788 0.243007 0.204463 0.170824 0.141720 0.116750 0.095508 0.077585 0.062585 0.050133 0.039879 0.031501 0.024711 0.019249 0.014890 0.011439 0.008726 0.006611 0.004973 0.003715 0.002756 0.002031 0.001486 0.001080 0.000779 0.000558 0.000397 0.000281 
0.000133 0.000196 0.000285 0.000412 0.000589 0.000835 0.001174 0.001635 0.002260 0.003096 0.004207 0.005669 0.007577 0.010045 0.013211 0.017235 0.022306 0.028642 0.036487 0.046118 0.057835 0.071966 0.088855 0.108861 0.132343 0.159656 0.191129 0.227059 0.267687 0.313184 0.363634 0.419013 0.479177 0.543847 0.612598 0.684856 0.759893 0.836840 0.914691 0.992325 1.068529 1.142031 1.211527 1.275728 1.333392 1.383368 1.424633 1.456327 1.477783 1.488550 1.488410 1.477384 1.455730 1.423934 1.382695 1.332892 1.275560 1.211852 1.142999 1.070273 0.994951 0.918272 0.841413 0.765456 0.691367 0.619984 0.552000 0.487967 0.428291 0.373241 0.322958 0.277468 0.236698 0.200491 0.168624 0.140822 0.116775 0.096154 0.078617 0.063828 0.051457 0.041194 0.032746 0.025849 0.020262 0.015772 0.012191 0.009357 0.007132 0.005398 0.004057 0.003028 0.002244 0.001652 0.001207 0.000876 0.000632 0.000452 0.000321 0.000227 
0.000114 0.000166 0.000242 0.000348 0.000496 0.000702 0.000984 0.001369 0.001887 0.002581 0.003502 0.004712 0.006290 0.008328 0.010940 0.014258 0.018436 0.023651 0.030105 0.038022 0.047650 0.059254 0.073118 0.089532 0.108792 0.131185 0.156982 0.186424 0.219707 0.256973 0.298287 0.343631 0.392887 0.445827 0.502103 0.561247 0.622664 0.685643 0.749362 0.812905 0.875281 0.935447 0.992339 1.044901 1.092115 1.133040 1.166837 1.192801 1.210383 1.219214 1.219112 1.210092 1.192366 1.166329 1.132550 1.091752 1.044779 0.992577 0.936154 0.876554 0.814821 0.751974 0.688978 0.626721 0.565996 0.507489 0.451773 0.399297 0.350397 0.305293 0.264100 0.226840 0.193453 0.163809 0.137725 0.114974 0.095303 0.078440 0.064104 0.052020 0.041916 0.033537 0.026644 0.021020 0.016466 0.012808 0.009893 0.007588 0.005779 0.004371 0.003282 0.002448 0.001813 0.001333 0.000973 0.000706 0.000508 0.000363 0.000258 0.000182 
0.000095 0.000139 0.000202 0.000290 0.000412 0.000582 0.000814 0.001130 0.001556 0.002125 0.002879 0.003870 0.005160 0.006825 0.008957 0.011662 0.015067 0.019315 0.024568 0.031009 0.038838 0.048270 0.059533 0.072864 0.088500 0.106675 0.127608 0.151492 0.178487 0.208706 0.242203 0.278963 0.318891 0.361800 0.407411 0.455344 0.505117 0.556156 0.607795 0.659293 0.709846 0.758611 0.804725 0.847332 0.885608 0.918789 0.946194 0.967251 0.981515 0.988685 0.988611 0.981305 0.966937 0.945826 0.918435 0.885345 0.847244 0.804897 0.759123 0.710768 0.660680 0.609687 0.558571 0.508055 0.458782 0.411310 0.366104 0.323531 0.283861 0.247275 0.213865 0.183650 0.156580 0.132549 0.111409 0.092975 0.077041 0.063385 0.051780 0.042001 0.033827 0.027052 0.021481 0.016937 0.013260 0.010309 0.007957 0.006099 0.004642 0.003508 0.002633 0.001962 0.001452 0.001067 0.000778 0.000564 0.000406 0.000290 0.000205 0.000145 
0.000079 0.000115 0.000166 0.000238 0.000338 0.000476 0.000665 0.000922 0.001268 0.001729 0.002340 0.003142 0.004185 0.005530 0.007251 0.009435 0.012180 0.015604 0.019836 0.025022 0.031323 0.038912 0.047971 0.058689 0.071257 0.085862 0.102679 0.121863 0.143543 0.167807 0.194700 0.224210 0.256258 0.290698 0.327305 0.365772 0.405717 0.446677 0.488118 0.529446 0.570018 0.609156 0.646169 0.680369 0.711095 0.737733 0.759738 0.776648 0.788106 0.793868 0.793815 0.787955 0.776422 0.759474 0.737479 0.710906 0.680306 0.646293 0.609525 0.570681 0.530444 0.489478 0.448412 0.407828 0.368243 0.330107 0.293791 0.259593 0.227729 0.198344 0.171514 0.147253 0.125519 0.106230 0.089264 0.074473 0.061690 0.050738 0.041434 0.033596 0.027047 0.021621 0.017161 0.013524 0.010583 0.008223 0.006344 0.004860 0.003696 0.002792 0.002094 0.001559 0.001153 0.000846 0.000617 0.000447 0.000321 0.000229 0.000162 0.000114 
0.000064 0.000093 0.000135 0.000193 0.000273 0.000385 0.000537 0.000743 0.001021 0.001391 0.001880 0.002522 0.003356 0.004432 0.005808 0.007551 0.009743 0.012474 0.015849 0.019983 0.025003 0.031048 0.038261 0.046794 0.056797 0.068418 0.081796 0.097055 0.114296 0.133590 0.154971 0.178431 0.203907 0.231282 0.260377 0.290952 0.322699 0.355252 0.388189 0.421036 0.453283 0.484391 0.513811 0.540998 0.565424 0.586603 0.604099 0.617547 0.626660 0.631246 0.631208 0.626553 0.617386 0.603911 0.586422 0.565290 0.540953 0.513900 0.484654 0.453756 0.421748 0.389159 0.356490 0.324205 0.292714 0.262376 0.233488 0.206285 0.180941 0.157571 0.136234 0.116942 0.099663 0.084329 0.070844 0.059090 0.048935 0.040236 0.032847 0.026625 0.021427 0.017122 0.013584 0.010701 0.008370 0.006500 0.005013 0.003838 0.002918 0.002202 0.001651 0.001228 0.000908 0.000666 0.000485 0.000351 0.000252 0.000180 0.000127 0.000090 
0.000052 0.000075 0.000108 0.000154 0.000219 0.000307 0.000428 0.000592 0.000812 0.001106 0.001494 0.002003 0.002663 0.003514 0.004602 0.005981 0.007712 0.009869 0.012533 0.015796 0.019757 0.024525 0.030212 0.036939 0.044822 0.053980 0.064519 0.076539 0.090118 0.105312 0.122149 0.140620 0.160677 0.182228 0.205133 0.229201 0.254192 0.279817 0.305744 0.331601 0.356986 0.381475 0.404637 0.426041 0.445273 0.461950 0.475728 0.486319 0.493498 0.497112 0.497085 0.493422 0.486205 0.475595 0.461822 0.445179 0.426010 0.404700 0.381662 0.357321 0.332105 0.306431 0.280694 0.255258 0.230449 0.206548 0.183791 0.162361 0.142397 0.123989 0.107185 0.091992 0.078386 0.066313 0.055697 0.046446 0.038455 0.031610 0.025799 0.020905 0.016819 0.013435 0.010655 0.008391 0.006560 0.005093 0.003925 0.003004 0.002283 0.001722 0.001290 0.000960 0.000709 0.000520 0.000378 0.000274 0.000196 0.000140 0.000099 0.000070 
0.000041 0.000060 0.000086 0.000122 0.000173 0.000242 0.000338 0.000467 0.000640 0.000870 0.001175 0.001573 0.002091 0.002758 0.003610 0.004688 0.006043 0.007730 0.009812 0.012362 0.015457 0.019181 0.023622 0.028873 0.035027 0.042173 0.050398 0.059775 0.070368 0.082220 0.095351 0.109757 0.125398 0.142204 0.160064 0.178830 0.198317 0.218297 0.238513 0.258675 0.278469 0.297565 0.315627 0.332318 0.347317 0.360324 0.371070 0.379332 0.384933 0.387754 0.387736 0.384880 0.379252 0.370977 0.360234 0.347251 0.332296 0.315671 0.297696 0.278704 0.259029 0.238996 0.218914 0.199066 0.179708 0.161059 0.143302 0.126582 0.111006 0.096645 0.083536 0.071685 0.061073 0.051658 0.043381 0.036168 0.029939 0.024605 0.020076 0.016264 0.013081 0.010446 0.008282 0.006520 0.005096 0.003954 0.003047 0.002331 0.001770 0.001335 0.001000 0.000743 0.000549 0.000402 0.000293 0.000211 0.000152 0.000108 0.000076 0.000054 
0.000032 0.000047 0.000067 0.000096 0.000135 0.000189 0.000263 0.000364 0.000498 0.000678 0.000914 0.001223 0.001625 0.002142 0.002802 0.003638 0.004688 0.005994 0.007606 0.009580 0.011974 0.014855 0.018290 0.022351 0.027108 0.032633 0.038989 0.046236 0.054422 0.063579 0.073725 0.084853 0.096936 0.109918 0.123714 0.138210 0.153261 0.168694 0.184309 0.199882 0.215172 0.229923 0.243875 0.256769 0.268357 0.278405 0.286709 0.293093 0.297421 0.299602 0.299589 0.297384 0.293037 0.286643 0.278342 0.268310 0.256754 0.243906 0.230014 0.215336 0.200130 0.184646 0.169124 0.153784 0.138822 0.124408 0.110684 0.097762 0.085725 0.074627 0.064497 0.055341 0.047142 0.039869 0.033475 0.027905 0.023094 0.018975 0.015480 0.012537 0.010081 0.008048 0.006379 0.005020 0.003923 0.003043 0.002344 0.001792 0.001361 0.001026 0.000768 0.000571 0.000421 0.000308 0.000224 0.000162 0.000116 0.000083 0.000058 0.000041 
